# .PCD v0.7 - Point Cloud Data file format
VERSION 0.7
FIELDS x y z rgb
SIZE 4 4 4 4
TYPE F F F F
COUNT 1 1 1 1
WIDTH 961
HEIGHT 1
VIEWPOINT 0 0 0 1 0 0 0
POINTS 961
DATA ascii
0.13682157 0.16400802 0.027673097 1.1485575e-039
0.13870528 0.16401336 0.027743798 1.5166197e-039
0.14269941 0.16066915 0.03173779 2.2523799e-039
0.043002814 0.1359922 0.053722825 4.2550638e-039
0.042292502 0.14270556 0.046013478 4.0746522e-039
0.043149788 0.14538911 0.042966001 7.4750963e-039
0.043712553 0.14874443 0.039140586 4.4463242e-039
0.044799712 0.15075655 0.036869269 3.9878656e-039
0.045870759 0.15276873 0.034597572 3.0641143e-039
0.047206741 0.1541094 0.033103012 4.7196797e-039
0.04824828 0.15612181 0.030830607 3.3421473e-039
0.049273763 0.15813434 0.028557733 2.3341246e-039
0.05057228 0.15947533 0.027062304 1.9682232e-039
0.051860139 0.16081636 0.025566712 1.2396615e-039
0.052842848 0.16282922 0.023292806 1.7942814e-039
0.054106735 0.16417047 0.021796692 1.8868428e-039
0.055659879 0.16484016 0.021078538 1.0563618e-039
0.0572078 0.16550994 0.020360339 9.6416901e-040
0.05905582 0.16550812 0.020420469 1.3329515e-039
0.060596008 0.16617814 0.019702248 4.1243577e-040
0.062441781 0.16617657 0.019762615 5.046314e-040
0.064287715 0.16617508 0.019823097 1.2421964e-039
0.066450022 0.16550197 0.0206625 6.8902266e-040
0.068299197 0.16550072 0.020723406 5.046314e-040
0.070148632 0.16549958 0.020784469 3.2024154e-040
0.071998388 0.16549857 0.020845709 5.046328e-040
0.073521525 0.16616942 0.020127986 5.046328e-040
0.075369217 0.16616866 0.020189483 3.2096181e-040
0.076552659 0.16751148 0.018692661 5.0535307e-040
0.078730613 0.16683926 0.019533675 9.6453195e-040
0.080914371 0.16616718 0.020375084 3.0753036e-039
0.08310391 0.16549519 0.021216886 3.8074596e-039
0.084613048 0.16616687 0.020499771 7.5748464e-039
0.086463064 0.16616693 0.02056242 1.7064494e-038
0.088662043 0.1654954 0.021405119 1.8721844e-038
0.090515621 0.16549575 0.021468278 1.2634047e-038
0.092369765 0.16549627 0.021531662 1.991642e-038
0.093511082 0.1668404 0.020035055 1.3647104e-038
0.096079484 0.16549778 0.021659099 1.6875026e-038
0.097573057 0.16617052 0.020942828 1.6874316e-038
0.099426605 0.16617167 0.021007027 1.3738944e-038
0.10091325 0.16684473 0.020291016 1.8533117e-038
0.1027653 0.16684622 0.020355618 1.7149818e-038
0.1046179 0.16684788 0.020420441 1.6504448e-038
0.10722245 0.1655063 0.022047063 1.4013367e-038
0.10983848 0.16416495 0.023674283 1.0971632e-038
0.11208506 0.16349548 0.024521224 1.6691361e-038
0.11357026 0.16416959 0.023806565 1.0698648e-038
0.11543723 0.1641722 0.023873113 1.4572684e-038
0.11652663 0.16551837 0.022377495 8.8641503e-039
0.11838975 0.16552135 0.02244441 2.9852562e-039
0.12064831 0.16485289 0.023293048 2.065825e-039
0.12251581 0.16485628 0.023360655 1.7914045e-039
0.12438415 0.16485989 0.023428554 1.6077336e-039
0.12585062 0.16553536 0.022715041 3.0813979e-039
0.12771806 0.1655394 0.022783468 1.715908e-038
0.12917814 0.16621533 0.022070248 1.63261e-038
0.1318668 0.16487649 0.023703292 3.1707264e-039
0.13373981 0.1648812 0.023772778 1.2400328e-039
0.13644686 0.16354287 0.02540705 1.2400328e-039
0.13874665 0.16287644 0.026259743 1.6999292e-039
0.14316258 0.15885213 0.031025194 2.6164765e-039
0.042796094 0.13546763 0.05138481 3.888819e-039
0.04234983 0.14152411 0.044471797 4.1672136e-039
0.042936325 0.14488751 0.040657748 5.5353882e-039
0.04376892 0.14757772 0.037618119 7.2874681e-039
0.04485571 0.14959474 0.035353199 5.2735612e-039
0.045926392 0.15161183 0.033087887 4.2590547e-039
0.047824267 0.15160909 0.033148497 5.177774e-039
0.049154624 0.15295309 0.031658106 4.5374479e-039
0.050474308 0.15429717 0.030167548 3.1588336e-039
0.051204924 0.15698801 0.027125306 1.9610219e-039
0.052497871 0.15833235 0.025634075 1.4168557e-039
0.053485591 0.16035005 0.023366779 3.155542e-040
0.054754522 0.16169459 0.021875003 4.0919597e-040
0.056012884 0.16303918 0.020383056 2.4374998e-039
0.057260584 0.16438389 0.018890897 2.3463832e-039
0.05849769 0.16572875 0.017398486 2.0705138e-039
0.060340326 0.16572702 0.017458513 1.0570821e-039
0.061872441 0.16639873 0.016742308 8.7376985e-040
0.063712835 0.16639718 0.016802553 8.7341392e-040
0.065553464 0.16639578 0.016862953 6.8902266e-040
0.067713208 0.16572112 0.017700167 6.8902266e-040
0.069878601 0.16504657 0.018537715 5.046328e-040
0.07172545 0.1650455 0.018598774 7.8121969e-040
0.073245645 0.16571791 0.017883083 4.1315744e-040
0.074760757 0.16639043 0.017167361 4.1315744e-040
0.076270811 0.16706312 0.016451662 5.0535307e-040
0.078110866 0.16706254 0.016513148 8.7341532e-040
0.080289021 0.16638875 0.01735211 1.4233479e-039
0.082813516 0.16504173 0.018968847 1.9754385e-039
0.084319659 0.16571495 0.018253716 2.4342446e-039
0.086166672 0.16571492 0.018316159 2.8908998e-039
0.087317042 0.16706178 0.016823504 7.4851815e-039
0.089159556 0.16706204 0.016886167 7.1102571e-039
0.091002584 0.16706246 0.016949058 1.7521135e-038
0.092489399 0.16773647 0.016234191 1.881186e-038
0.09504956 0.16639043 0.017853519 1.918172e-038
0.096534722 0.16706468 0.017139036 1.5860164e-038
0.098379873 0.16706575 0.017202839 1.8902975e-038
0.10022559 0.16706696 0.017266849 2.0191918e-038
0.10207188 0.16706836 0.017331108 9.0362465e-039
0.10429179 0.16639659 0.018174108 1.8992654e-038
0.10614212 0.16639832 0.018238975 1.9546548e-038
0.10912824 0.16438016 0.020640178 1.3186126e-038
0.11060692 0.16505566 0.019927012 1.0052195e-038
0.11246468 0.16505794 0.019992813 1.6321142e-038
0.11432321 0.16506043 0.020058919 1.6690653e-038
0.11618249 0.16506308 0.020125281 1.374364e-038
0.11804257 0.16506597 0.020191938 3.2611228e-039
0.11990349 0.16506901 0.020258868 1.9736322e-039
0.12176517 0.16507228 0.020326085 1.6077392e-039
0.12322763 0.16574906 0.019614145 1.5155379e-039
0.12508838 0.16575274 0.019681869 9.2407927e-039
0.12695001 0.16575661 0.019749898 1.4947508e-038
0.12881258 0.1657607 0.019818228 1.0893815e-038
0.1310872 0.16509172 0.020666758 1.4247786e-039
0.13254066 0.16576955 0.019955862 9.6488928e-040
0.13482271 0.16510102 0.020805251 1.4237038e-039
0.13836899 0.16241291 0.023995684 3.0796238e-039
0.14489204 0.15501219 0.032649279 4.1765967e-039
0.042589247 0.1349463 0.049051017 2.6960492e-039
0.042407174 0.14034262 0.042930052 2.4245056e-039
0.042993158 0.1437142 0.039126694 1.872415e-039
0.044098377 0.14573602 0.03686865 4.0714264e-039
0.045187529 0.14775796 0.034610208 6.1804031e-039
0.046538997 0.14910498 0.033124581 8.2944201e-039
0.048160981 0.14977716 0.032412022 9.0298244e-039
0.049777601 0.15044941 0.031699382 7.7491665e-039
0.051102389 0.15179676 0.030213181 6.0979254e-039
0.052705731 0.15246922 0.029500347 6.3723613e-039
0.053719897 0.15449175 0.027240152 3.3443123e-039
0.055012681 0.15583935 0.025753312 6.8181018e-040
0.055700086 0.15853707 0.022718577 7.7473308e-040
0.057266269 0.15920994 0.022005029 4.0702956e-040
0.058524441 0.16055793 0.020517407 8.6800771e-040
0.060382918 0.16055602 0.020577762 1.4219018e-039
0.061625313 0.16190419 0.019089933 2.1609073e-039
0.06316793 0.16257748 0.018376149 1.7002893e-039
0.064078316 0.16460091 0.01611363 1.5180603e-039
0.065605238 0.16527444 0.015399604 1.1485575e-039
0.067764841 0.16459808 0.016234586 8.7269085e-040
0.069608524 0.16459683 0.016295327 1.2414734e-039
0.071452469 0.16459569 0.016356213 8.7341392e-040
0.072969668 0.1652697 0.015642472 5.9682843e-040
0.074481823 0.1659438 0.014928729 5.0535307e-040
0.076321326 0.16594306 0.014989963 4.1315744e-040
0.077826031 0.16661748 0.014276269 1.0578066e-039
0.079663508 0.16661698 0.014337763 1.1500008e-039
0.081841983 0.16594157 0.015174724 8.7269365e-040
0.084369458 0.16459133 0.016787341 6.8937719e-040
0.086216271 0.16459122 0.016849665 8.7269085e-040
0.087714858 0.16526631 0.016136711 2.0665481e-039
0.089208536 0.16594149 0.015423768 4.1809113e-039
0.091405384 0.16526684 0.01626223 9.1349498e-039
0.092894576 0.16594233 0.015549516 1.0609357e-038
0.095097847 0.16526797 0.016388599 9.1360232e-039
0.096220464 0.16661882 0.014900134 1.4664502e-038
0.098427556 0.16594476 0.015739808 1.9365758e-038
0.099905379 0.16662094 0.015027508 1.4843494e-038
0.10174873 0.16662222 0.015091525 1.7516447e-038
0.10359264 0.16662368 0.015155794 1.9086292e-038
0.10543726 0.16662532 0.015220311 1.1895756e-038
0.10766098 0.16595209 0.016061656 1.7610806e-038
0.10950963 0.16595408 0.01612678 1.7518613e-038
0.11174284 0.16528127 0.01696888 1.4108096e-038
0.11359561 0.16528361 0.017034603 1.0419917e-038
0.11544916 0.16528615 0.017100621 9.5944748e-039
0.1173035 0.1652889 0.017166905 4.4553332e-039
0.11915864 0.16529182 0.017233469 3.5377097e-039
0.12141205 0.16461998 0.018077534 1.9747182e-039
0.12247117 0.16597322 0.016590144 1.5155379e-039
0.12472904 0.1653018 0.017434888 6.8480601e-039
0.12618198 0.16598049 0.016725125 1.3387421e-038
0.12844715 0.16530949 0.017570682 3.448021e-039
0.13030761 0.16531365 0.017639037 9.6488648e-040
0.13216904 0.16531801 0.0177077 7.8121969e-040
0.13444807 0.16464767 0.0185546 2.2531044e-039
0.1392494 0.15992802 0.024070218 3.0781749e-039
0.043311905 0.12698923 0.055135783 5.5382412e-039
0.042647395 0.13375165 0.047492102 3.4328926e-039
0.04273231 0.13848451 0.042158969 2.1482816e-039
0.043590978 0.1411877 0.039137207 1.13881e-039
0.044701256 0.14321437 0.036885772 2.0593258e-039
0.045795418 0.1452412 0.03463389 2.6067459e-039
0.047430545 0.14591488 0.033923738 6.1847233e-039
0.048779145 0.1472653 0.032442346 7.6490521e-039
0.050117027 0.14861578 0.03096077 8.5728035e-039
0.051444169 0.14996639 0.029478898 7.1952696e-039
0.05276069 0.15131706 0.027996844 6.83045e-039
0.054066502 0.15266782 0.026514567 8.0286415e-039
0.055656407 0.15334213 0.025803596 1.1413464e-039
0.057241049 0.15401646 0.025092613 8.6584831e-040
0.058520347 0.15536755 0.023609843 4.0595196e-040
0.059486177 0.15739539 0.021354958 1.4201025e-039
0.060741551 0.15874669 0.019871648 1.6012497e-039
0.062294487 0.1594215 0.019160105 8.6800491e-040
0.063531369 0.16077302 0.017676475 6.8433672e-040
0.064757667 0.16212466 0.016192649 7.8012948e-040
0.065973394 0.16347644 0.014708541 1.8871973e-039
0.067816585 0.16347504 0.014769044 1.7960807e-039
0.069338396 0.16415039 0.01405724 1.0585156e-039
0.07117945 0.16414921 0.01411796 6.8937859e-040
0.072693683 0.16482478 0.013406197 6.8830239e-040
0.074532658 0.16482383 0.01346716 5.975487e-040
0.076039419 0.16549972 0.012755443 5.975487e-040
0.077876352 0.16549903 0.012816658 5.0535307e-040
0.079375744 0.16617513 0.012105072 4.1315744e-040
0.081551336 0.16549803 0.012939654 6.8974293e-040
0.083389379 0.16549772 0.013001414 8.7269365e-040
0.085573904 0.16482088 0.0138367 6.8937859e-040
0.086718068 0.1661742 0.012352193 1.6070133e-039
0.088906161 0.16549768 0.013187914 1.2241673e-039
0.091100134 0.16482124 0.01402408 7.0126286e-039
0.092943147 0.16482165 0.014086939 8.8568957e-039
0.094786704 0.16482222 0.014150033 1.1254351e-038
0.09626849 0.16549964 0.013439476 9.3189585e-039
0.097745433 0.16617715 0.012728995 9.965051e-039
0.099585168 0.1661782 0.012792563 1.309682e-038
0.10142555 0.16617939 0.012856362 1.9456878e-038
0.10326652 0.16618076 0.012920412 1.9087015e-038
0.1051081 0.16618228 0.012984685 1.6782128e-038
0.10695037 0.16618398 0.01304921 1.9547639e-038
0.10841208 0.16686249 0.012339511 1.4383974e-038
0.1106369 0.1661879 0.013179015 1.8994465e-038
0.11209457 0.16686676 0.012469635 9.3128446e-039
0.11471573 0.16551594 0.01408466 1.5030053e-038
0.1165643 0.16551855 0.014150577 1.8169379e-038
0.11880854 0.16484468 0.014991775 1.6417667e-038
0.12026386 0.16552433 0.014283253 1.2451486e-038
0.12131435 0.16688073 0.012799685 6.2920501e-039
0.12316083 0.16688411 0.012866545 2.9870611e-039
0.12541388 0.1662111 0.01370907 3.2647255e-039
0.12808177 0.16486165 0.015327577 1.1485603e-039
0.12993915 0.16486567 0.015395634 5.9574943e-040
0.13221143 0.16419333 0.016239673 6.8794786e-040
0.13532344 0.16216801 0.018635778 1.9736322e-039
0.042583551 0.12781276 0.0512501 2.8807978e-039
0.042705566 0.13255695 0.04593312 2.976236e-039
0.043325558 0.13594478 0.042152166 2.2408402e-039
0.044459689 0.13797632 0.039907776 1.7813068e-039
0.045304436 0.14068615 0.036894217 1.321772e-039
0.046403639 0.14271787 0.034648899 1.1381066e-039
0.047765337 0.14407143 0.033172123 1.3232181e-039
0.049397666 0.14474681 0.032464117 2.7011121e-039
0.050740618 0.14610058 0.030986918 7.0991055e-039
0.052072924 0.14745441 0.029509515 8.2944061e-039
0.053394511 0.14880836 0.028031839 6.1847289e-039
0.054997545 0.14948413 0.027323326 4.7229251e-039
0.056595299 0.15015997 0.026614737 4.9741751e-040
0.05818782 0.15083593 0.025906138 8.6656437e-040
0.059474904 0.1521903 0.024427813 9.5840407e-040
0.061054207 0.15286644 0.023718989 9.5840547e-040
0.062628336 0.1535427 0.023010146 1.6945216e-039
0.06388896 0.15489739 0.021531358 2.6139569e-039
0.064828001 0.15693042 0.019282443 2.1537005e-039
0.066064753 0.15828532 0.017803131 1.6934454e-039
0.067290984 0.15964031 0.016323665 2.0618622e-039
0.068825714 0.16031712 0.015614228 5.3733252e-039
0.070355318 0.16099405 0.01490476 4.6408146e-039
0.072204292 0.16099282 0.014965666 3.2647255e-039
0.073071972 0.1630266 0.012715232 1.9786755e-039
0.074253663 0.16438222 0.011234989 1.2407531e-039
0.075757466 0.16505966 0.010525282 4.1243577e-040
0.077591546 0.16505891 0.010586341 4.1315744e-040
0.079425886 0.16505827 0.01064755 6.8974433e-040
0.080919974 0.16573608 0.0099380137 5.0535167e-040
0.082409032 0.16641401 0.0092284791 5.9682703e-040
0.084585279 0.16573548 0.010061204 5.057076e-040
0.087116122 0.16437881 0.011665519 1.1485575e-039
0.089658305 0.16302222 0.013270441 1.6952404e-039
0.091149084 0.1637007 0.012561672 7.476855e-039
0.092634946 0.16437937 0.011852909 7.1973744e-039
0.094475545 0.16437986 0.011915783 1.3465605e-038
0.095954306 0.16505878 0.011207197 7.3799734e-039
0.097793244 0.16505957 0.011270432 9.0416555e-039
0.099265024 0.16573882 0.010562013 9.5026351e-039
0.10147288 0.16506162 0.011397553 1.088557e-038
0.10256722 0.16641948 0.0099173533 1.2081951e-038
0.10440312 0.16642089 0.0099813063 1.3095025e-038
0.10586111 0.16710077 0.0092732776 1.8626763e-038
0.10807687 0.16642424 0.010109941 1.5491049e-038
0.11029882 0.16574793 0.010947077 1.9272132e-038
0.11214014 0.16575004 0.011012122 1.3092868e-038
0.11437169 0.16507408 0.011850058 1.3831508e-038
0.11660943 0.16439831 0.012688442 1.2450733e-038
0.11845844 0.16440098 0.012754478 9.7792206e-039
0.11991075 0.1650821 0.012047876 1.8811874e-038
0.12135842 0.16576342 0.011341361 1.2634075e-038
0.12320453 0.16576667 0.011408038 2.7093938e-039
0.12464581 0.16644837 0.010701807 2.2516624e-039
0.12730798 0.16509554 0.012315588 1.0560073e-039
0.12998207 0.16374288 0.013930114 1.1482029e-039
0.13266799 0.16239052 0.015545301 1.2396783e-039
0.13619927 0.15968192 0.018708464 2.6171967e-039
0.04404249 0.1177718 0.059574101 5.0797798e-039
0.042117316 0.12796623 0.04814354 2.5145376e-039
0.042763747 0.13136217 0.044374064 2.1482746e-039
0.043651164 0.13407838 0.041370258 1.9649764e-039
0.045058303 0.13543493 0.039898869 1.7813068e-039
0.046181358 0.13747142 0.037660688 1.6894769e-039
0.047564302 0.13882816 0.036188707 1.3224978e-039
0.048657771 0.14086483 0.033949774 1.5990847e-039
0.050297968 0.14154187 0.033244088 3.0695261e-039
0.051648743 0.14289886 0.03177144 2.9726389e-039
0.052701991 0.14493585 0.029531464 6.6500132e-039
0.053739227 0.14697292 0.027291141 2.7014554e-039
0.055344701 0.14765033 0.026584774 1.5994407e-039
0.056944951 0.1483278 0.025878381 5.8925862e-040
0.058837518 0.14832546 0.02593933 8.6620984e-040
0.059829418 0.15036294 0.023698008 4.9779306e-040
0.061714191 0.15036079 0.02375894 1.1424408e-039
0.062987797 0.15171859 0.022284668 1.7852753e-039
0.06425076 0.15307647 0.020810232 4.4513801e-039
0.065503165 0.15443452 0.019335549 4.083678e-039
0.066745028 0.15579264 0.017860707 2.7965447e-039
0.068292767 0.15647092 0.017153624 5.3711518e-039
0.069835328 0.15714937 0.016446488 1.1165742e-038
0.07137277 0.1578279 0.015739365 5.9218102e-039
0.073229641 0.1578266 0.01580047 2.6132367e-039
0.074105054 0.15986523 0.013556716 1.3318627e-039
0.074634574 0.16258395 0.010544084 2.2541834e-039
0.075808138 0.16394296 0.0090679796 1.7017312e-039
0.07697127 0.16530202 0.0075917095 1.5180603e-039
0.079138108 0.1646214 0.0084213745 1.1492777e-039
0.080629192 0.16530079 0.0077138087 9.6488928e-040
0.081771761 0.16666028 0.0062373132 7.8049522e-040
0.083942495 0.16598001 0.0070676534 9.6524381e-040
0.086119004 0.16529992 0.0078983232 7.8085255e-040
0.088301353 0.16461995 0.0087293619 9.6524381e-040
0.089781046 0.16530001 0.0080222916 1.0556416e-039
0.091255762 0.16598019 0.007315238 1.3304264e-039
0.093085326 0.16598061 0.0073776427 3.0742106e-039
0.094552919 0.16666113 0.0066706766 3.248151e-039
0.097111031 0.16530192 0.0082727 1.125114e-038
0.099312671 0.16462284 0.0091055548 1.4383974e-038
0.10189085 0.16326398 0.010708622 7.1012271e-039
0.10298751 0.16462502 0.0092326831 1.1713165e-038
0.10482589 0.16462637 0.009296624 1.0699382e-038
0.10552887 0.1666677 0.0070504658 1.0238404e-038
0.10774178 0.1659894 0.0078848125 1.3005714e-038
0.10957668 0.16599122 0.007949261 1.1533119e-038
0.11218585 0.16463339 0.0095547037 1.4112425e-038
0.11402765 0.1646356 0.0096198618 1.5769421e-038
0.11547799 0.16531789 0.0089147203 1.0145854e-038
0.11731862 0.16532044 0.0089803021 1.5491745e-038
0.11916003 0.1653232 0.0090461634 1.8902621e-038
0.12100223 0.16532612 0.009112291 1.825726e-038
0.12244222 0.16600913 0.008407753 5.6517156e-039
0.12428349 0.16601244 0.0084743556 2.3442112e-039
0.12653418 0.16533607 0.0093123876 1.0574394e-039
0.1292026 0.16398002 0.010922196 1.2411104e-039
0.13312492 0.16058454 0.014846789 2.0679886e-039
0.043582644 0.11790712 0.056444064 3.9788413e-039
0.042701304 0.1254002 0.048101954 2.423065e-039
0.043087289 0.12948586 0.043579146 2.4245056e-039
0.043976948 0.13220862 0.040583976 1.6883909e-039
0.045386549 0.13356841 0.039116986 1.5043654e-039
0.046511933 0.13560984 0.036885254 2.0582622e-039
0.048173405 0.13628829 0.036182221 1.8731465e-039
0.049271915 0.13832989 0.033949807 3.9903908e-039
0.050917309 0.13900852 0.033246469 6.8426763e-039
0.052273158 0.14036879 0.031778187 4.3552034e-039
0.053331476 0.14241067 0.029544847 2.885132e-039
0.054373678 0.14445266 0.027311038 1.4146935e-039
0.055984367 0.14513166 0.026607007 1.1399059e-039
0.057589769 0.14581072 0.025902882 1.6016043e-039
0.059189912 0.14648993 0.025198687 1.5101303e-039
0.060484476 0.14785075 0.023729166 1.41759e-039
0.062374499 0.14784858 0.023790216 1.0491648e-039
0.063958928 0.14852804 0.023085913 4.6354056e-039
0.065538161 0.14920759 0.022381566 1.3655417e-038
0.066801034 0.15056887 0.020911466 1.3473918e-038
0.067739464 0.15261185 0.018675396 5.7363428e-039
0.068978541 0.15397331 0.01720484 1.3465225e-038
0.070526265 0.15465331 0.016499996 1.4656175e-038
0.07271269 0.15397027 0.017327176 7.8546717e-039
0.073930956 0.15533209 0.015856357 2.6128765e-039
0.074811295 0.15737563 0.013619083 6.8468984e-040
0.075345755 0.16010088 0.010615167 6.8505418e-040
0.07685712 0.16078147 0.0099098608 2.258795e-040
0.078027986 0.16214383 0.0084380489 1.2407531e-039
0.079864651 0.16214308 0.0084991958 2.254905e-039
0.080679208 0.16418722 0.0062605687 2.3471007e-039
0.081821412 0.16554995 0.0047882805 1.6095356e-039
0.083645716 0.16554959 0.0048495159 1.3333061e-039
0.086168341 0.16418615 0.0064448072 1.3333061e-039
0.087647282 0.16486764 0.0057395971 1.0574394e-039
0.08876691 0.16623092 0.004267253 4.1135817e-040
0.090233184 0.16691267 0.0035619498 1.3322313e-039
0.091694601 0.1675946 0.0028566907 1.3315068e-039
0.093513563 0.16759507 0.0029188262 2.0669026e-039
0.096063435 0.16623251 0.0045161052 3.3500758e-039
0.098256774 0.16555171 0.0053464128 7.0198817e-039
0.10045616 0.16487102 0.0061771926 1.0885924e-038
0.10266148 0.16419052 0.0070083081 1.1161066e-038
0.10487286 0.16351019 0.0078398511 6.6413195e-039
0.10519668 0.16623794 0.0048320694 7.5650849e-039
0.10702521 0.16623951 0.0048959674 7.9450442e-039
0.1088544 0.16624123 0.0049600811 3.8124833e-039
0.1118449 0.1641984 0.0073291743 5.5505082e-039
0.11329411 0.16488205 0.0066257766 1.6324757e-038
0.11513097 0.16488431 0.0066908579 1.8720402e-038
0.11657349 0.16556835 0.0059876214 1.9088095e-038
0.11880693 0.16488937 0.0068217814 1.9087739e-038
0.12064613 0.16489218 0.006887658 1.0150185e-038
0.12288938 0.16421364 0.0077226134 4.4549787e-039
0.12432715 0.16489837 0.0070202444 1.5158939e-039
0.1257603 0.16558333 0.0063178991 7.8157282e-040
0.12883446 0.16354229 0.0086921621 1.4254989e-039
0.1331681 0.15945688 0.013374921 2.0690648e-039
0.046009436 0.1050729 0.067733847 1.2264156e-038
0.043382518 0.11736587 0.054084361 3.5236337e-039
0.042760193 0.12419383 0.046527762 3.1584665e-039
0.043411024 0.1276062 0.042779863 2.0568063e-039
0.044302955 0.13033551 0.039793339 1.7813068e-039
0.045714941 0.13169858 0.0383307 1.1381066e-039
0.047116175 0.13306177 0.036867786 1.5043654e-039
0.048506662 0.134425 0.03540466 9.6855816e-039
0.049886379 0.13578835 0.03394122 1.2626054e-038
0.051255386 0.13715175 0.032477584 1.4001428e-038
0.052329414 0.13919848 0.030251019 1.4471078e-038
0.053961262 0.1398789 0.029549561 3.8967504e-039
0.055298164 0.14124258 0.028085204 2.794737e-039
0.056916695 0.14192322 0.027383473 1.070331e-038
0.057939906 0.14397028 0.025155747 1.5676812e-038
0.059542537 0.14465107 0.024453787 1.5494247e-038
0.060539018 0.14669839 0.022225365 1.2819538e-038
0.062428873 0.14669615 0.02228638 4.0800697e-039
0.064013116 0.14737725 0.021584185 3.8085232e-039
0.06559208 0.14805841 0.020881925 1.37494e-038
0.067165889 0.14873974 0.020179596 1.5313143e-038
0.068106629 0.15078756 0.017950037 7.0238376e-039
0.069348067 0.1521523 0.016483752 1.4668422e-038
0.070898242 0.15283391 0.015781092 1.5398048e-038
0.072765283 0.15283242 0.015842281 8.2245164e-039
0.073983155 0.15419745 0.014375675 2.7061428e-039
0.075517938 0.15487945 0.01367289 1.4204556e-039
0.076057337 0.15761121 0.010677714 9.6020054e-040
0.077573799 0.15829343 0.0099746231 2.2335576e-040
0.078414232 0.16034219 0.0077429172 9.6092361e-040
0.079915173 0.16102467 0.0070396364 3.1627446e-040
0.080729276 0.16307369 0.0048073684 4.0919036e-040
0.08221478 0.16375637 0.0041039381 3.4516475e-039
0.08404161 0.16375595 0.0041651758 2.53005e-039
0.085868806 0.16375566 0.0042265905 2.8988325e-039
0.086992994 0.165122 0.0027584117 1.1471169e-039
0.088106848 0.16648847 0.001290122 1.4237024e-039
0.089924604 0.16648859 0.0013517692 1.3322271e-039
0.091742836 0.16648884 0.0014135964 1.5155379e-039
0.093924113 0.16580601 0.0022408494 1.2400314e-039
0.095746092 0.16580655 0.0023031759 5.9718296e-040
0.097568564 0.16580725 0.0023657132 1.2407559e-039
0.099391654 0.16580808 0.0024284725 1.606656e-039
0.10158866 0.16512585 0.0032570402 1.6055671e-039
0.1030396 0.16581023 0.0025546399 4.0836724e-039
0.10410687 0.16717803 0.001086452 3.8045548e-039
0.10592698 0.1671795 0.0011499159 2.3434867e-039
0.10813203 0.16649787 0.0019796577 1.7002851e-039
0.11073013 0.16513324 0.003575854 1.0556416e-039
0.11217082 0.16581842 0.0028741583 3.4448064e-039
0.11399918 0.16582057 0.0029388107 3.6237887e-039
0.11543324 0.1665061 0.0022373381 4.7297523e-039
0.11726046 0.1665086 0.0023023989 3.994355e-039
0.11948899 0.16582808 0.0031342767 2.9888589e-039
0.12172383 0.16514775 0.0039666211 1.4254989e-039
0.12437101 0.16378438 0.0055662519 7.8157282e-040
0.12539509 0.16515407 0.0040990417 1.3343795e-039
0.12928918 0.16174158 0.0080004716 1.6080867e-039
0.13403985 0.15696296 0.013437345 2.1511781e-039
0.045041185 0.1065596 0.063060865 7.2903141e-039
0.043442313 0.116143 0.052488655 2.8804292e-039
0.04334471 0.12161781 0.046473198 2.5149047e-039
0.043734901 0.1257232 0.041976228 1.8713374e-039
0.044629123 0.12845907 0.038998343 1.3210517e-039
0.045772709 0.13051021 0.036779996 1.045911e-039
0.04717363 0.13187668 0.035321351 1.9653421e-039
0.048563842 0.13324317 0.033862472 1.3558462e-038
0.050222263 0.13392495 0.033163689 1.5669914e-038
0.051593699 0.13529168 0.031704396 1.5108825e-038
0.052954383 0.13665845 0.030244855 1.6404279e-038
0.054304369 0.13802534 0.028785057 3.8049093e-039
0.055643685 0.1393923 0.027325042 3.439012e-039
0.057264719 0.14007451 0.026625559 1.3277548e-038
0.058880497 0.14075685 0.025925977 1.7147239e-038
0.060193155 0.14212409 0.024465449 1.6505144e-038
0.061194666 0.1441763 0.02224361 1.6322207e-038
0.062483355 0.14554375 0.020782523 1.3468493e-038
0.064373255 0.14554158 0.020843619 4.3562936e-039
0.0659547 0.14622438 0.020143561 2.97985e-039
0.06753096 0.14690727 0.019443462 4.3609767e-039
0.06878797 0.14827515 0.017981786 4.54321e-039
0.070034496 0.14964311 0.01651996 5.9235913e-039
0.071589783 0.15032637 0.015819523 1.0982794e-038
0.073462062 0.15032482 0.015880831 1.0701187e-038
0.074685052 0.15169312 0.014418654 1.4186535e-039
0.076224953 0.15237667 0.013718166 1.0523934e-039
0.077099435 0.15443011 0.011493644 1.0516759e-039
0.078956626 0.15442902 0.011555022 4.0702676e-040
0.08014302 0.15579778 0.010092212 1.052399e-039
0.081657223 0.1564818 0.0093914894 8.6800771e-040
0.082143456 0.15922062 0.0064036548 4.9994546e-040
0.083639421 0.15990493 0.0057025906 4.073925e-040
0.085130475 0.16058934 0.0050015771 5.9178376e-040
0.086965591 0.16058899 0.0050631929 1.3304264e-039
0.088097535 0.16195853 0.0035995403 3.8204287e-039
0.088864617 0.16401312 0.0013728761 4.8349407e-039
0.09033034 0.16469805 0.00067169871 2.1630639e-039
0.092151068 0.16469823 0.0007335213 1.4255017e-039
0.093972258 0.16469857 0.00079553737 1.0567192e-039
0.095793992 0.16469903 0.00085776648 7.8157422e-040
0.096880205 0.16606945 -0.0006063811 6.8974433e-040
0.098326884 0.16675507 -0.0013072852 8.7161605e-040
0.1005156 0.16607112 -0.0004812493 1.2400356e-039
0.10233419 0.16607217 -0.00041835918 1.7002823e-039
0.10377457 0.16675827 -0.00111888 1.4240527e-039
0.10559171 0.16675964 -0.0010556208 1.2411076e-039
0.10740952 0.16676117 -0.00099213817 9.6488648e-040
0.11000201 0.16539311 0.00059947837 7.8014069e-040
0.1118267 0.16539499 0.00066364091 1.1482029e-039
0.11365206 0.16539703 0.00072804256 1.2389566e-039
0.11547822 0.16539925 0.00079270219 2.2527358e-039
0.11730514 0.16540164 0.00085761189 2.3442112e-039
0.11953346 0.16471936 0.0016871786 1.5162512e-039
0.12136478 0.16472211 0.0017527281 1.148912e-039
0.12400898 0.16335538 0.0033477335 5.9753749e-040
0.12584749 0.16335852 0.0034140183 1.4258548e-039
0.12974432 0.15993768 0.0073046279 2.7086721e-039
0.046626832 0.095707454 0.071974941 1.1709171e-038
0.044072304 0.10805941 0.05840499 3.2430825e-039
0.043502111 0.11492008 0.050892867 2.6067332e-039
0.043666657 0.11972161 0.045652255 2.4227091e-039
0.044324562 0.12315038 0.041926026 1.4114481e-039
0.04522375 0.12589282 0.038956903 1.1370234e-039
0.046372317 0.12794891 0.03674509 8.6115956e-040
0.047504768 0.13000503 0.034532905 2.1504424e-039
0.048897393 0.13137487 0.033078358 1.466515e-038
0.050279297 0.13274473 0.031623606 1.5396558e-038
0.051650427 0.13411474 0.030168567 1.5396558e-038
0.053295262 0.13479829 0.029471656 1.364562e-038
0.054934774 0.13548195 0.028774688 2.2422835e-039
0.055989385 0.1375387 0.026560551 2.0589713e-039
0.057905409 0.13753605 0.026621899 1.1441219e-038
0.059526399 0.13821998 0.025924651 1.5489883e-038
0.060844127 0.1395905 0.024468496 1.7056149e-038
0.061550077 0.14233407 0.021494403 1.7242354e-038
0.062537841 0.1443913 0.019278636 1.6416217e-038
0.064427607 0.14438912 0.019339701 6.8376359e-039
0.066317484 0.14438702 0.01940088 1.2335532e-039
0.067584857 0.14575803 0.017943745 1.1409947e-039
0.068841591 0.14712918 0.016486334 3.4404764e-039
0.070404537 0.1478139 0.01578816 2.5199578e-039
0.07228177 0.1478122 0.015849441 3.3482766e-039
0.073837101 0.14849713 0.01515128 3.1638895e-039
0.075062416 0.14986871 0.013693364 9.5912434e-040
0.076604784 0.15055385 0.012995071 8.6692871e-040
0.0778118 0.15192564 0.011536894 9.5912434e-040
0.079341248 0.15261105 0.010838402 1.05132e-039
0.080530033 0.15398307 0.0093799364 8.6692871e-040
0.082385004 0.15398218 0.0094414931 6.8325912e-040
0.083558246 0.15535443 0.0079828007 4.9886786e-040
0.084721044 0.15672685 0.006523882 6.8325912e-040
0.086219862 0.15741284 0.0058251964 5.9106349e-040
0.087364569 0.15878552 0.0043660011 5.9142082e-040
0.089202598 0.15878525 0.0044278046 4.0702676e-040
0.090331949 0.16015814 0.0029684629 1.0531164e-039
0.091808207 0.16084465 0.0022697072 1.1463883e-039
0.093279511 0.1615313 0.0015709624 1.6098901e-039
0.094383195 0.16290464 0.0001112374 1.7035305e-039
0.095476665 0.16427809 -0.0013485944 1.6095356e-039
0.096191674 0.16633824 -0.0035697739 7.7977775e-040
0.097632632 0.16702543 -0.0042688139 9.6416901e-040
0.099815764 0.16633974 -0.0034452258 1.1485603e-039
0.10125247 0.16702724 -0.0041440371 9.6488928e-040
0.10306328 0.16702837 -0.004081313 7.8014069e-040
0.10449313 0.16771618 -0.0047799605 6.8902406e-040
0.10707124 0.16634458 -0.0031935198 6.8902406e-040
0.10888677 0.16634619 -0.0031300175 7.8121969e-040
0.11070299 0.16634797 -0.0030662827 5.046328e-040
0.11251996 0.16634992 -0.003002299 9.6416901e-040
0.11433769 0.16635202 -0.0029380731 1.0563618e-039
0.11655412 0.1656678 -0.0021114284 1.3329487e-039
0.1187768 0.16498376 -0.0012843483 1.7020858e-039
0.12100575 0.16429988 -0.00045675039 1.2411076e-039
0.12364709 0.16292973 0.0011337078 1.8850337e-039
0.12630022 0.16155975 0.0027248773 2.6193561e-039
0.13184603 0.1553846 0.0096552996 3.9922068e-039
0.045924511 0.096502617 0.068053171 9.9625118e-039
0.043617908 0.1081961 0.05527693 3.4292814e-039
0.043301716 0.11438517 0.048541546 2.5149047e-039
0.04346288 0.1191982 0.04331585 1.3203286e-039
0.044383213 0.12194709 0.040355876 1.7809523e-039
0.045550317 0.12400803 0.038151015 1.3214174e-039
0.04670129 0.12606904 0.03594574 8.6116096e-040
0.04783605 0.12813011 0.033740059 1.7820271e-039
0.04950757 0.12881508 0.033045884 3.9889264e-039
0.051173665 0.12950017 0.032351594 1.4845219e-038
0.052552633 0.13087338 0.030901108 1.5950469e-038
0.053920846 0.13224673 0.02945034 1.3461953e-038
0.054991148 0.13430822 0.027243052 2.5188718e-039
0.056625191 0.1349936 0.026548158 1.230298e-039
0.058253888 0.1356791 0.025853131 4.9079974e-039
0.060467862 0.13498835 0.026671251 1.0246287e-038
0.06179342 0.13636214 0.025219623 1.6137436e-038
0.062807679 0.13842417 0.023011031 1.6875015e-038
0.063805871 0.14048626 0.020802064 1.3652522e-038
0.065094113 0.14186035 0.019349575 4.5399646e-039
0.066989243 0.14185822 0.019410895 1.7852753e-039
0.06826169 0.14323249 0.017958174 3.1638867e-039
0.069523521 0.14460684 0.016505228 8.5879179e-039
0.071408488 0.14460503 0.016566599 1.0517172e-038
0.072974101 0.14529148 0.015870694 1.1347656e-038
0.07453455 0.14597802 0.015174808 6.5664692e-039
0.075764954 0.14735281 0.013721366 1.0502368e-039
0.077312462 0.14803961 0.013025296 8.6693011e-040
0.078854896 0.14872646 0.012329232 9.5840547e-040
0.080392174 0.14941344 0.011633137 7.7473448e-040
0.081924446 0.15010054 0.010937043 5.9034322e-040
0.083790034 0.15009959 0.0109989 4.9886786e-040
0.08497373 0.15147512 0.0095447348 4.0667223e-040
0.086834654 0.1514744 0.009606746 4.9886786e-040
0.088002928 0.15285015 0.0081524486 3.144794e-040
0.088811502 0.15491423 0.0059395847 6.8361645e-040
0.09066011 0.1549139 0.0060016639 5.9141802e-040
0.092154585 0.15560186 0.0053054178 5.9141802e-040
0.093644053 0.15628995 0.0046091662 3.1555139e-040
0.09440849 0.15835455 0.0023954958 3.1627446e-040
0.095157221 0.16041926 0.00018152525 3.1699613e-040
0.095890202 0.16248412 -0.0020328667 8.7053005e-040
0.096607469 0.16454913 -0.0042476109 3.7282386e-039
0.097679958 0.16592608 -0.005703582 3.2669004e-039
0.099489346 0.16592684 -0.0056413906 1.7010138e-039
0.10092305 0.1666159 -0.0063382536 6.8758212e-040
0.10310988 0.1659288 -0.0055163959 1.0560073e-039
0.10492113 0.16593 -0.0054535675 6.8794506e-040
0.10711744 0.16524319 -0.0046309875 7.8014069e-040
0.10931983 0.16455656 -0.0038079855 6.8902406e-040
0.11074866 0.1652464 -0.0045039994 1.0578066e-039
0.11295792 0.16456009 -0.0036803253 1.0570849e-039
0.11517336 0.16387396 -0.0028562262 8.7197338e-040
0.11699702 0.16387615 -0.0027916953 1.1485575e-039
0.11882147 0.1638785 -0.0027269069 1.608814e-039
0.12064672 0.16388103 -0.0026618754 1.7924849e-039
0.1232852 0.16250744 -0.0010759202 2.2520156e-039
0.127571 0.15838152 0.003552282 3.7221038e-039
0.04547663 0.0966179 0.064897254 7.0151678e-039
0.043936118 0.10627018 0.054417014 2.6946073e-039
0.043882132 0.11178428 0.048454378 1.505073e-039
0.043784995 0.11729857 0.04249043 1.2281316e-039
0.044973344 0.11936433 0.040292609 1.4136103e-039
0.046145491 0.12143017 0.038094345 1.2292218e-039
0.047301512 0.12349608 0.035895713 1.8738682e-039
0.048441347 0.1255621 0.033696599 1.3206944e-039
0.049841519 0.12693843 0.0322509 2.1490019e-039
0.051510133 0.12762511 0.03155886 4.4466647e-039
0.052891519 0.12900165 0.030112702 1.254615e-038
0.054546751 0.12968847 0.029420417 1.6226746e-038
0.056196652 0.13037539 0.028728046 8.4899293e-039
0.057841241 0.13106242 0.02803557 1.506529e-039
0.059773177 0.13105974 0.028097387 1.231747e-039
0.061409872 0.13174689 0.027404904 8.6403923e-040
0.063041285 0.13243413 0.026712341 1.4168473e-039
0.063464433 0.13588059 0.023001304 3.4397379e-039
0.064467624 0.13794762 0.020798892 5.2793205e-039
0.065454878 0.14001472 0.018596116 6.7476038e-039
0.067352563 0.14001258 0.018657491 1.3370844e-038
0.068627365 0.14139014 0.017209066 1.5397692e-038
0.070205793 0.14207798 0.016515488 1.6684817e-038
0.071779072 0.14276591 0.015821876 1.6776285e-038
0.073666781 0.14276415 0.015883416 1.6222391e-038
0.075232387 0.14345229 0.015189805 1.7333448e-038
0.076792873 0.14414057 0.01449612 4.2633889e-039
0.078020506 0.14551872 0.013046968 2.3373742e-039
0.07923767 0.14689705 0.011597574 1.049885e-039
0.080444276 0.14827542 0.010148024 1.1424366e-039
0.082312077 0.1482743 0.010209737 6.8253885e-040
0.083841689 0.14896312 0.0095157912 6.8253885e-040
0.085366264 0.14965205 0.0088218302 4.0667223e-040
0.086885773 0.15034114 0.0081278021 3.144766e-040
0.088400297 0.15103032 0.0074338224 4.0667223e-040
0.089211188 0.15309924 0.0052274554 4.0667223e-040
0.091414332 0.15240905 0.006045823 6.8361645e-040
0.093268596 0.15240878 0.0061081983 6.8361645e-040
0.095123328 0.15240864 0.0061707385 6.8253745e-040
0.095898129 0.15447812 0.0039637918 1.1427953e-039
0.096657217 0.15654774 0.0017564859 4.9814759e-040
0.097400643 0.15861745 -0.00045112683 4.0667223e-040
0.098496556 0.15999751 -0.0019023176 1.0520416e-039
0.099211223 0.16206749 -0.0041105598 8.6837065e-040
0.10028386 0.16344783 -0.0055621802 1.8825226e-039
0.10172267 0.16413847 -0.0062568123 3.4505685e-039
0.10277756 0.16551906 -0.0077086235 3.3594519e-039
0.10458586 0.16552019 -0.0076459842 2.5296913e-039
0.10677924 0.16483167 -0.0068257623 1.6077336e-039
0.10820432 0.16552289 -0.0075200833 1.4255017e-039
0.10962466 0.16621432 -0.0082144085 1.4254989e-039
0.11143293 0.16621608 -0.008150965 1.1481917e-039
0.1148234 0.16345875 -0.0050561912 1.0570723e-039
0.11664405 0.16346084 -0.0049918965 1.1496351e-039
0.11886629 0.16277331 -0.0041693943 1.5169714e-039
0.12069127 0.16277574 -0.0041044983 1.6080937e-039
0.12454835 0.15932935 -0.00024848245 1.7914017e-039
0.1304782 0.15243433 0.0073999995 2.8023083e-039
0.044773396 0.097430974 0.060998861 3.8855708e-039
0.043738995 0.10572359 0.05205055 2.2379507e-039
0.043421198 0.11194226 0.045353811 1.4128788e-039
0.044107255 0.11539559 0.041660637 1.5047199e-039
0.045032188 0.11815766 0.038718008 7.6931986e-040
0.046472512 0.11953703 0.037277646 7.7004433e-040
0.047902048 0.12091652 0.03583698 1.8756674e-039
0.049320813 0.12229605 0.034396093 8.0415628e-039
0.050728828 0.12367569 0.032954905 9.4205302e-039
0.05212608 0.12505539 0.031513501 3.5293986e-039
0.053512577 0.12643516 0.030071845 4.4484752e-039
0.05517298 0.12712365 0.02938181 1.0791184e-038
0.056540705 0.12850359 0.027939735 1.2912417e-038
0.058477886 0.12850082 0.028001618 3.0691743e-039
0.060415063 0.12849811 0.028063592 1.1391954e-039
0.062056959 0.12918688 0.027373403 4.0414709e-040
0.063395403 0.13056719 0.025930736 7.7328554e-040
0.064422376 0.13263899 0.023735438 1.231377e-039
0.065129757 0.13540235 0.020787138 5.8267209e-039
0.066121995 0.1374744 0.018590905 1.3927986e-038
0.067407094 0.13885508 0.017147003 1.6227092e-038
0.069304824 0.13885301 0.017208468 1.6133453e-038
0.070888408 0.13954251 0.01651714 1.7422736e-038
0.072783835 0.13954061 0.016578767 1.769932e-038
0.074040085 0.1409217 0.015134417 1.5668853e-038
0.075930588 0.14092001 0.015196153 1.9082992e-038
0.077171147 0.14230131 0.013751552 8.5915164e-039
0.078728914 0.1429913 0.013060019 2.7958273e-039
0.079620667 0.14506428 0.01086168 9.5840547e-040
0.081162855 0.14575452 0.010169903 7.7401281e-040
0.083035849 0.14575335 0.010231748 5.9141802e-040
0.084570572 0.14644375 0.009540054 5.9142082e-040
0.085759006 0.14782575 0.0080945864 7.7473308e-040
0.087280944 0.14851639 0.00740278 3.1375633e-040
0.088451199 0.14989865 0.0059569729 9.5912574e-040
0.089960471 0.15058956 0.0052650515 7.7473448e-040
0.091464698 0.15128057 0.0045731235 1.3271866e-039
0.09331876 0.15128025 0.0046354244 8.6620844e-040
0.095530748 0.1505886 0.005452198 6.8145705e-040
0.097028293 0.15128 0.0047605434 1.050241e-039
0.098157942 0.15266302 0.0033143624 1.3268321e-039
0.09927734 0.15404616 0.001868058 1.0509654e-039
0.10038637 0.15542945 0.00042152242 4.9887066e-040
0.1011142 0.15750432 -0.0017799009 7.7545755e-040
0.10182629 0.15957935 -0.0039817141 4.9886786e-040
0.1032756 0.16027156 -0.004673942 7.7653235e-040
0.10434094 0.16165541 -0.0061212163 2.0672712e-039
0.10615982 0.16165647 -0.0060583241 4.0033794e-039
0.10797936 0.16165768 -0.0059952149 3.2658116e-039
0.10902495 0.16304192 -0.0074425619 3.9983361e-039
0.1104504 0.16373488 -0.0081346119 3.1707363e-039
0.11226384 0.16373654 -0.0080711124 5.1925591e-039
0.11486891 0.16235548 -0.0064961426 4.9152491e-039
0.11708742 0.16166604 -0.0056762639 4.6386623e-039
0.11971305 0.16028528 -0.0041000987 5.1896738e-039
0.12235036 0.15890476 -0.002523337 5.0070776e-039
0.12743723 0.15337577 0.0035901612 5.0996278e-039
0.043814518 0.098946884 0.05636435 4.1668465e-039
0.043541744 0.10518023 0.049688306 2.6078206e-039
0.043741409 0.11002772 0.044508822 1.8724024e-039
0.044429697 0.11348926 0.040826462 3.3457136e-039
0.045888688 0.11487184 0.039390918 7.6659083e-039
0.046799667 0.11764055 0.036456525 2.6996379e-039
0.04823165 0.11902335 0.035020247 2.7025162e-039
0.049652848 0.12040616 0.033583734 1.4849134e-038
0.051339984 0.12109601 0.032896485 1.2449556e-038
0.052462962 0.12317206 0.030709881 2.7936398e-039
0.053851891 0.12455511 0.029272584 2.0589713e-039
0.055514812 0.1252452 0.028584823 1.9653421e-039
0.057172403 0.12593542 0.027896944 4.1737058e-039
0.05882467 0.12662566 0.027209021 1.2303022e-039
0.060764465 0.12662295 0.027271075 9.555258e-040
0.062113345 0.12800643 0.025832972 4.9598819e-040
0.063749656 0.12869696 0.025144784 4.9706299e-040
0.064779006 0.13077366 0.022955984 7.7076881e-040
0.065792233 0.13285051 0.020766728 2.1475642e-039
0.066789478 0.13492748 0.018577084 1.225549e-038
0.068079658 0.13631143 0.017137613 1.6495734e-038
0.06967096 0.13700241 0.016448582 1.6401728e-038
0.071257032 0.13769346 0.01575949 1.5762478e-038
0.072837889 0.13838467 0.015070306 1.7884052e-038
0.07441362 0.13907593 0.014381131 1.3269258e-038
0.076629087 0.13838114 0.015193908 1.5301532e-038
0.07787475 0.13976569 0.013753737 1.4756316e-038
0.078781947 0.14184348 0.011562115 6.8361855e-039
0.07967329 0.14392135 0.0093701584 2.2462534e-039
0.08121521 0.14461319 0.0086804889 5.007079e-039
0.083424032 0.14391887 0.0094937645 4.4535493e-039
0.084622547 0.14530402 0.0080526844 1.0498724e-039
0.085810632 0.14668925 0.0066114469 7.7580647e-040
0.086988248 0.14807464 0.0051699667 4.9779166e-040
0.088848971 0.14807391 0.0052319337 9.566034e-040
0.090360641 0.1487664 0.0045422036 1.6026903e-039
0.092219472 0.14876591 0.0046044197 5.9141802e-040
0.093369044 0.15015176 0.0031626767 6.8181718e-040
0.095580898 0.14945841 0.0039772321 1.4183018e-039
0.097078137 0.1501514 0.0032876541 1.048799e-039
0.098570414 0.15084451 0.0025980582 1.6945342e-039
0.099692143 0.15223092 0.0011560223 5.8962295e-040
0.10117194 0.1529243 0.00046636164 8.6693011e-040
0.10264689 0.15361781 -0.00022328366 4.0667223e-040
0.10336938 0.15569773 -0.0024183791 4.0667223e-040
0.10445271 0.15708461 -0.0038609826 3.7886907e-041
0.10590503 0.15777859 -0.0045508943 4.0702956e-040
0.10735256 0.15847269 -0.0052407375 4.0702676e-040
0.10917995 0.1584738 -0.0051774587 6.8289338e-040
0.11023333 0.15986128 -0.0066203233 1.3275425e-039
0.11166661 0.16055584 -0.0073101176 2.1569403e-039
0.11309515 0.1612505 -0.0079998281 4.0854885e-039
0.11570552 0.15986603 -0.0064290315 4.4535507e-039
0.11792928 0.15917486 -0.0056112558 4.3613537e-039
0.12096115 0.15709764 -0.0032856562 4.7279698e-039
0.12562472 0.15224832 0.0020557796 3.5305014e-039
0.043875791 0.097697288 0.054733761 4.4438005e-039
0.043860052 0.10325079 0.048823804 2.6996519e-039
0.043540634 0.10949908 0.0421657 3.3439129e-039
0.044752296 0.11157957 0.039987918 1.0985981e-038
0.045947738 0.1136601 0.037809715 1.3836466e-038
0.047664322 0.11435139 0.037125327 1.1166806e-038
0.048832774 0.1164321 0.034946371 9.6009208e-039
0.050533149 0.11712354 0.034261629 1.558702e-038
0.051951386 0.11850975 0.032829355 1.4110123e-038
0.053638324 0.11920132 0.032144342 5.2760597e-039
0.054755617 0.12128236 0.029964074 2.0582482e-039
0.056426454 0.1219741 0.029278714 1.0484305e-039
0.057804417 0.12336058 0.027845543 3.1158572e-040
0.059752095 0.12335777 0.027907744 7.7328414e-040
0.061114032 0.12474447 0.026474215 2.1975863e-040
0.062465265 0.12613121 0.025040459 4.0379256e-040
0.063209265 0.1289075 0.022110298 6.8145705e-040
0.065135784 0.12890501 0.022172209 4.0270655e-040
0.06706237 0.12890261 0.022234228 1.8756674e-039
0.068376422 0.13028973 0.020799713 8.015245e-039
0.069370724 0.13237169 0.018616498 1.2157161e-038
0.070660792 0.13375904 0.01718137 1.4368383e-038
0.072254747 0.13445173 0.016494676 1.6306643e-038
0.073526368 0.13583922 0.015059226 1.8618365e-038
0.074787334 0.13722688 0.013623513 1.3822069e-038
0.077005461 0.13653037 0.014434251 1.4104076e-038
0.077928208 0.13861296 0.012249421 1.3371944e-038
0.07916297 0.14000086 0.01081328 1.1530583e-038
0.079725966 0.14277843 0.0078786463 3.3507975e-039
0.081267655 0.14347187 0.0071910638 7.3101649e-039
0.083140321 0.14347066 0.0072528087 2.6107115e-039
0.08501327 0.14346954 0.0073147048 4.8226864e-039
0.086886607 0.14346854 0.0073767477 2.2466079e-039
0.088072002 0.14485714 0.0059398171 3.4415512e-039
0.089593828 0.14555112 0.0052523455 8.4089441e-039
0.091460168 0.14555046 0.0053146076 4.8165627e-039
0.092974655 0.14624465 0.0046271933 2.0622167e-039
0.094484188 0.14693902 0.0039397315 6.6648039e-039
0.096346408 0.14693873 0.0040023234 2.7965475e-039
0.097488403 0.14832807 0.0025648871 1.3257489e-039
0.098620094 0.14971752 0.0011272731 1.6927251e-039
0.099741444 0.15110715 -0.00031057838 1.7841977e-039
0.10122097 0.15180212 -0.00099816872 7.7508621e-040
0.10380911 0.15041299 0.00056568813 4.0702395e-040
0.10491314 0.15180297 -0.00087219011 7.7616381e-040
0.10638352 0.15249835 -0.0015595523 6.8324791e-040
0.10784907 0.15319392 -0.0022469442 1.2331903e-039
0.10930987 0.15388958 -0.0029342722 8.6548117e-040
0.11115056 0.15389064 -0.0028706347 8.6656437e-040
0.11221711 0.15528134 -0.0043088561 7.7508901e-040
0.1132735 0.15667221 -0.0057472568 7.7364988e-040
0.11471257 0.15736845 -0.0064345598 1.5097744e-039
0.11614698 0.15806484 -0.0071218191 9.587572e-040
0.11877152 0.1566772 -0.0055547855 1.2346308e-039
0.12261077 0.15320551 -0.0017325543 1.1399157e-039
0.12970772 0.14417614 0.0081038084 1.6902e-039
0.044162825 0.090184763 0.059738982 5.4496413e-039
0.043937024 0.096447602 0.053103052 3.8917071e-039
0.043920584 0.10201429 0.047210295 2.6063801e-039
0.044382349 0.10618848 0.042805735 7.3900403e-039
0.045338389 0.1089702 0.039889835 1.3284353e-038
0.046804938 0.11035939 0.038463105 9.0488078e-039
0.04799195 0.11244492 0.036291163 4.0796563e-039
0.04916276 0.11453058 0.034118745 9.7853092e-039
0.050591528 0.11591998 0.03269108 1.5218606e-038
0.052563142 0.11591679 0.032753605 1.5402644e-038
0.054255255 0.11661005 0.03207086 1.4756952e-038
0.055659857 0.11799967 0.030642677 5.7388455e-039
0.057338554 0.11869302 0.029959705 1.6912748e-039
0.059011932 0.11938646 0.029276662 4.9669725e-040
0.060389694 0.12077634 0.02784783 8.6512524e-040
0.061756752 0.12216628 0.02641879 4.0414709e-040
0.062817447 0.12425268 0.024243623 4.9634552e-040
0.063862056 0.1263392 0.022068037 5.8926142e-040
0.06579382 0.12633669 0.022130111 5.8781808e-040
0.067725666 0.12633428 0.022192284 1.2317442e-039
0.069351226 0.12702829 0.02150839 7.2842031e-039
0.070662431 0.12841877 0.020078175 1.0683137e-038
0.071651146 0.13050574 0.017901305 1.2890741e-038
0.072623849 0.13259283 0.015724042 1.6027182e-038
0.073897853 0.1339836 0.014292957 1.723183e-038
0.075801112 0.13398173 0.014354886 1.4372335e-038
0.077381991 0.13467634 0.013670236 1.6961053e-038
0.078957707 0.13537103 0.012985541 1.6410777e-038
0.079872213 0.13745864 0.010806985 1.1342579e-038
0.080770858 0.13954633 0.0086280452 3.807803e-039
0.081653588 0.14163414 0.0064487541 2.7954587e-039
0.083192639 0.14232931 0.0057633487 3.7166933e-039
0.084726609 0.14302453 0.0050779362 4.4542598e-039
0.08693859 0.14232713 0.0058871796 3.7188555e-039
0.088467851 0.14302258 0.005201906 5.5613276e-039
0.090685926 0.14232537 0.0060116323 5.4640915e-039
0.092210531 0.14302106 0.0053264908 1.1541083e-038
0.094082467 0.14302048 0.0053890464 4.2691469e-039
0.094889864 0.14510919 0.0032084221 7.2168819e-039
0.096754558 0.14510885 0.0032710305 7.7650264e-039
0.097898923 0.14650147 0.0018378708 1.7845648e-039
0.099032938 0.14789416 0.0004045628 6.2931417e-039
0.099790804 0.14998341 -0.0017771251 5.0945985e-039
0.10163856 0.14998358 -0.0017144186 1.6959607e-039
0.1038581 0.14928748 -0.00090318918 8.669161e-040
0.10608363 0.14859149 -9.1549009e-005 5.9176974e-040
0.10718518 0.14998488 -0.0015251273 2.8948598e-039
0.10903523 0.1499856 -0.0014616353 2.2462506e-039
0.11012176 0.15137923 -0.0028953266 1.4168585e-039
0.11235244 0.15068382 -0.0020828184 1.5090541e-039
0.11342669 0.15207779 -0.0035165974 1.234984e-039
0.11449086 0.15347184 -0.0049505006 1.6026903e-039
0.11593778 0.15416966 -0.0056354729 1.5094199e-039
0.11817129 0.15347487 -0.0048220721 1.7852865e-039
0.12160599 0.15069106 -0.0017604153 1.7845648e-039
0.12666753 0.1451219 0.0042997375 1.5998064e-039
0.044224821 0.088920191 0.058088843 4.4419802e-039
0.04450893 0.09380199 0.052957065 3.6176398e-039
0.044239126 0.10007977 0.046339162 2.422342e-039
0.044703003 0.10426384 0.041947577 8.2212037e-039
0.04566133 0.10705213 0.039040361 1.3285436e-038
0.0468642 0.10914257 0.036875267 4.8154361e-039
0.048319694 0.11053512 0.035452627 1.9664043e-039
0.049764425 0.11192771 0.034029692 1.3217439e-039
0.051472493 0.11262247 0.033349454 1.1262565e-038
0.052898329 0.11401521 0.031926073 1.5126064e-038
0.054592989 0.11471008 0.03124561 1.4204499e-038
0.056282233 0.11540504 0.030565003 6.6607766e-039
0.05796618 0.11610006 0.029884383 1.7845396e-039
0.059644725 0.11679512 0.02920365 4.9741892e-040
0.061027639 0.11818825 0.027779315 5.8889428e-040
0.062106714 0.12027949 0.025611084 1.2321015e-039
0.063465498 0.12167278 0.024186153 1.4146935e-039
0.064813577 0.12306622 0.02276095 1.2313784e-039
0.066151045 0.12445971 0.021335559 1.1402604e-039
0.068389289 0.12375927 0.022141747 1.0477074e-039
0.070020065 0.12445493 0.021460168 2.0582468e-039
0.071336314 0.12584871 0.02003435 5.8151981e-039
0.072641961 0.12724257 0.018608321 1.2890395e-038
0.073307812 0.13003255 0.015693439 1.3534679e-038
0.074904211 0.13072859 0.015011192 1.3444287e-038
0.076175369 0.13212277 0.013584353 1.3168765e-038
0.078081384 0.13212097 0.013646472 1.6769776e-038
0.079662271 0.1328173 0.012964062 1.7051405e-038
0.080909915 0.13421173 0.011536882 1.595086e-038
0.081485458 0.13700238 0.0086197769 1.1896108e-038
0.08270666 0.13839708 0.0071919374 5.7366987e-039
0.083917372 0.13979185 0.0057639293 1.4978746e-039
0.086473174 0.13839461 0.0073160916 5.752092e-040
