# .PCD v0.7 - Point Cloud Data file format
VERSION 0.7
FIELDS x y z rgb
SIZE 4 4 4 4
TYPE F F F F
COUNT 1 1 1 1
WIDTH 937
HEIGHT 1
VIEWPOINT 0 0 0 1 0 0 0
POINTS 937
DATA ascii
-0.015702784 0.095220976 0.095562115 1.3646394e-038
-0.013574421 0.095216356 0.095628053 1.3276891e-038
-0.011094443 0.093865529 0.097238295 1.0510299e-038
-0.0087824818 0.093187794 0.098076634 9.125924e-039
-0.0064653233 0.092509985 0.09891516 7.0018246e-039
-0.1625461 0.11301322 0.067763753 1.8441646e-038
-0.16044065 0.11503636 0.065541252 1.9547993e-038
-0.15838443 0.11503593 0.065610223 1.9455443e-038
-0.15633655 0.11436093 0.066443197 1.9271052e-038
-0.1542777 0.1143603 0.066512026 1.9455443e-038
-0.15221889 0.11435963 0.066580772 1.8810434e-038
-0.15016001 0.11503334 0.065884985 1.8533847e-038
-0.14809883 0.11368345 0.067482382 1.8625682e-038
-0.14603215 0.11300801 0.068315424 1.8625681e-038
-0.14396012 0.1123325 0.069148555 1.844129e-038
-0.14188269 0.11165686 0.069981709 1.8349094e-038
-0.13979994 0.11098117 0.070814967 1.8349094e-038
-0.13772801 0.11097987 0.070883326 1.7703725e-038
-0.13565615 0.11097848 0.070951596 1.7611889e-038
-0.13356279 0.11030248 0.071784899 1.7703725e-038
-0.13146409 0.10962644 0.072618239 1.7888116e-038
-0.12938711 0.10962479 0.072686337 1.7888117e-038
-0.12728047 0.10894857 0.073519707 1.7980311e-038
-0.12520099 0.10894678 0.073587693 1.7519333e-038
-0.12312163 0.10894489 0.073655553 1.779592e-038
-0.1210045 0.10826842 0.07448896 1.779592e-038
-0.11888208 0.10759187 0.075322427 1.7887383e-038
-0.11671103 0.10624067 0.076921828 1.899084e-038
-0.11457531 0.10556392 0.077755511 1.7324099e-038
-0.11243431 0.10488711 0.078589268 1.6860911e-038
-0.1103395 0.10488473 0.078657009 1.8797041e-038
-0.108299 0.10555684 0.077958509 1.871315e-038
-0.10609344 0.10420519 0.079558484 1.8806808e-038
-0.10393678 0.10352807 0.080392376 1.8530233e-038
-0.10183719 0.10352539 0.080459878 1.8254735e-038
-0.099737771 0.10352264 0.080527313 1.7795197e-038
-0.097638525 0.10351983 0.080594614 1.7611529e-038
-0.095469013 0.10284239 0.081428535 1.7795197e-038
-0.093367435 0.10283942 0.081495725 1.7427491e-038
-0.091341913 0.10351095 0.080795959 1.7335295e-038
-0.089164838 0.10283328 0.081629828 1.7519686e-038
-0.086982541 0.10215555 0.082463801 1.7704078e-038
-0.084795013 0.10147774 0.083297841 1.7704078e-038
-0.082775697 0.10214903 0.082597554 1.7703726e-038
-0.080583178 0.1014711 0.083431594 1.761153e-038
-0.078385435 0.10079303 0.084265739 1.7519335e-038
-0.076182477 0.10011497 0.085099958 1.761153e-038
-0.074071892 0.1001114 0.085166678 1.7795922e-038
-0.071961522 0.1001078 0.085233338 1.761153e-038
-0.069748394 0.099429525 0.086067647 1.7703726e-038
-0.067635752 0.099425815 0.086134233 1.7427138e-038
-0.065523349 0.09942203 0.086200729 1.7703725e-038
-0.063522279 0.10009281 0.085499167 1.77952e-038
-0.061413027 0.10008893 0.08556544 1.7610809e-038
-0.059070986 0.098735772 0.087167971 1.7885952e-038
-0.056718357 0.097382471 0.088770762 1.8345487e-038
-0.054477058 0.096703812 0.089605503 1.483881e-038
-0.052479848 0.09737438 0.088903531 1.4269432e-038
-0.050488308 0.09804488 0.088201292 1.2412915e-038
-0.048502408 0.098715417 0.087498806 1.4988627e-038
-0.046256639 0.098036528 0.088333488 1.683686e-038
-0.043870267 0.096682973 0.089936994 1.8878485e-038
-0.041611463 0.096004039 0.090771973 1.5102078e-038
-0.039488357 0.095999703 0.090838112 1.1138034e-038
-0.037365504 0.095995359 0.090904228 1.399429e-038
-0.035096597 0.095316291 0.091739371 1.3440762e-038
-0.032822523 0.094637148 0.092574693 1.243597e-038
-0.030694969 0.094632693 0.092640817 1.0778969e-038
-0.028876416 0.095977671 0.091168217 1.0408022e-038
-0.026754748 0.095973194 0.091234125 1.0221832e-038
-0.024313755 0.094619207 0.09283901 8.8370968e-039
-0.021862157 0.093265258 0.094444208 7.9183845e-039
-0.019234797 0.091236472 0.096819386 6.7241643e-039
-0.017095132 0.091231883 0.096885756 7.5546452e-039
-0.014955717 0.091227263 0.096952066 7.737596e-039
-0.012643225 0.090547912 0.097788312 5.7056894e-039
-0.01032556 0.089868523 0.098624684 7.7311164e-039
-0.0080027143 0.089189112 0.099461205 7.7318268e-039
-0.0053118737 0.08716014 0.1018383 7.7300276e-039
-0.16257218 0.10838288 0.069941424 1.843804e-038
-0.16043957 0.11108709 0.066964045 1.8164703e-038
-0.15837239 0.11108667 0.067033403 1.7611529e-038
-0.1563134 0.11041 0.067864589 1.7888117e-038
-0.15424901 0.10973328 0.068695873 1.7795922e-038
-0.15217926 0.10905643 0.069527268 1.7888117e-038
-0.15010406 0.10905564 0.06959644 1.761153e-038
-0.14802893 0.10905477 0.069665477 1.7703725e-038
-0.14594306 0.10770154 0.071259245 1.779592e-038
-0.14385451 0.10702438 0.072090782 1.7611529e-038
-0.14176057 0.10634711 0.072922349 1.7611885e-038
-0.13966131 0.10566972 0.07375405 1.7611885e-038
-0.13757294 0.10566843 0.073822975 1.7335298e-038
-0.13550362 0.10634322 0.073128879 1.770408e-038
-0.13337481 0.10498943 0.07472346 1.7703725e-038
-0.13125961 0.10431173 0.07555519 1.7703725e-038
-0.12911195 0.10295776 0.077150188 1.7703725e-038
-0.12701322 0.10295603 0.077218913 1.7796276e-038
-0.12491459 0.10295422 0.077287525 1.77952e-038
-0.1228161 0.10295232 0.077356003 1.8163259e-038
-0.12071773 0.10295035 0.077424392 1.7794831e-038
-0.11861949 0.1029483 0.077492677 1.7793022e-038
-0.116478 0.10227002 0.078324541 1.6958881e-038
-0.11428511 0.10091548 0.079920225 1.6126581e-038
-0.11213034 0.10023701 0.080752298 1.7414419e-038
-0.11007337 0.10091081 0.080056556 1.741262e-038
-0.10796773 0.10090838 0.080124594 1.6675057e-038
-0.10586225 0.10090584 0.080192484 1.8148781e-038
-0.10369726 0.10022707 0.081024498 1.9719736e-038
-0.1015894 0.10022439 0.081092283 1.8068173e-038
-0.099481732 0.10022165 0.081159994 1.8345842e-038
-0.097374231 0.10021883 0.081227571 1.7702637e-038
-0.095196389 0.099539712 0.082059674 1.7887749e-038
-0.093086556 0.099536747 0.082127139 1.7796276e-038
-0.090976916 0.099533722 0.082194537 1.7519685e-038
-0.088867463 0.099530622 0.082261831 1.7150902e-038
-0.086758234 0.099527463 0.082329042 1.7519685e-038
-0.084649198 0.099524245 0.08239615 1.7888469e-038
-0.082540348 0.099520952 0.082463168 1.7334943e-038
-0.080342218 0.098841377 0.083295263 1.7795922e-038
-0.078138873 0.098161735 0.084127448 1.7334943e-038
-0.075930342 0.097481996 0.084959678 1.7518979e-038
-0.073814228 0.097478464 0.085026622 1.7427139e-038
-0.071698338 0.097474858 0.085093468 1.7703726e-038
-0.069479637 0.096794918 0.085925862 1.779592e-038
-0.067361489 0.0967912 0.085992649 1.7427138e-038
-0.065243579 0.09678743 0.086059347 1.7703725e-038
-0.063125901 0.096783608 0.08612597 1.7519333e-038
-0.061008446 0.096779734 0.086192518 1.77952e-038
-0.058774654 0.096099541 0.087025017 1.77952e-038
-0.056297079 0.094066724 0.089389756 1.8071064e-038
-0.054291509 0.094738998 0.088690296 1.8254014e-038
-0.052166902 0.0947349 0.088756792 1.8063854e-038
-0.050169956 0.095407099 0.088056944 1.5471937e-038
-0.048048541 0.095402926 0.08812324 1.6467362e-038
-0.045794521 0.094722435 0.088956013 1.4349373e-038
-0.043535337 0.094041899 0.089788914 1.2782416e-038
-0.041409221 0.094037622 0.089855239 1.048689e-038
-0.039283358 0.094033316 0.089921497 1.7222933e-038
-0.03701409 0.093352608 0.090754606 1.0213191e-038
-0.034446925 0.091319248 0.09312167 1.4370275e-038
-0.032310992 0.091314822 0.093188137 1.4926329e-038
-0.030175282 0.091310389 0.093254566 7.8236679e-039
-0.028348744 0.092658602 0.091786556 1.511144e-038
-0.026376098 0.093330465 0.091085456 1.1789158e-038
-0.023769626 0.091296889 0.093453571 8.841417e-039
-0.021309735 0.089939594 0.095054761 9.4893129e-039
-0.01883927 0.088582277 0.096656211 8.2914914e-039
-0.016526215 0.087901309 0.09749037 1.3086384e-038
-0.014207991 0.087220281 0.098324716 1.1793846e-038
-0.011884596 0.086539268 0.099159151 6.4421796e-039
-0.0097321058 0.086534612 0.099225871 7.3612591e-039
-0.0074010557 0.085853569 0.10006054 7.8229575e-039
-0.0039759367 0.081114009 0.10550361 6.998596e-039
-0.16259751 0.10373593 0.072097398 1.7332776e-038
-0.16046502 0.10576892 0.069888696 1.7242746e-038
-0.15838139 0.10576849 0.069958605 1.7519335e-038
-0.15630589 0.1050902 0.070788205 1.761153e-038
-0.1542304 0.10373401 0.072377861 1.7519335e-038
-0.15213872 0.10373331 0.072447687 1.7243108e-038
-0.15004709 0.10373253 0.07251741 1.7611529e-038
-0.14795551 0.10373166 0.072587006 1.7611529e-038
-0.14585853 0.10305292 0.07341677 1.7703725e-038
-0.14376435 0.10305188 0.073486231 1.7611529e-038
-0.14165935 0.10237297 0.07431604 1.7888472e-038
-0.13956261 0.10237177 0.074385382 1.7796276e-038
-0.13744962 0.10169265 0.075215265 1.7980667e-038
-0.13536939 0.10236907 0.074523665 1.770408e-038
-0.1332294 0.10101199 0.076114334 1.770408e-038
-0.13112761 0.10101044 0.076183401 1.7519689e-038
-0.12897152 0.099653229 0.077774346 1.7610809e-038
-0.12686451 0.099651508 0.077843346 1.7610806e-038
-0.12479023 0.10032749 0.077151053 1.8162539e-038
-0.12268618 0.10032561 0.077219754 1.7793033e-038
-0.12058225 0.10032365 0.077288352 1.7146203e-038
-0.11839693 0.098966002 0.078879699 1.6685554e-038
-0.11628784 0.098963857 0.078948244 1.7880458e-038
-0.11413272 0.098283812 0.079778351 1.7973008e-038
-0.11202122 0.098281518 0.07984677 1.8248855e-038
-0.10985825 0.097601339 0.080676876 1.8337088e-038
-0.10779867 0.098276719 0.079983301 1.8149817e-038
-0.10568764 0.098274201 0.080051407 1.7690282e-038
-0.10345727 0.096915968 0.081643522 1.6861251e-038
-0.10134117 0.096913286 0.08171159 1.6491433e-038
-0.099290416 0.097588383 0.081017345 1.7418078e-038
-0.097245276 0.098263428 0.080322839 1.7424594e-038
-0.095064536 0.097582713 0.081152856 1.79785e-038
-0.092878558 0.096901909 0.081982926 1.7887027e-038
-0.090687342 0.096221052 0.082813106 1.7335294e-038
-0.088648401 0.096895784 0.082117982 1.7243809e-038
-0.086533636 0.096892633 0.082185388 1.7520041e-038
-0.084419057 0.096889429 0.082252711 1.7519685e-038
-0.082304686 0.096886143 0.08231993 1.7334942e-038
-0.080190547 0.096882813 0.082387082 1.7519335e-038
-0.07789202 0.095523603 0.083980322 1.7334943e-038
-0.075677879 0.094842255 0.084810652 1.7242748e-038
-0.073556259 0.094838724 0.084877774 1.7427139e-038
-0.071434863 0.094835117 0.084944807 1.779592e-038
-0.069210574 0.094153583 0.085775204 1.7519333e-038
-0.067086928 0.09414988 0.0858422 1.7427138e-038
-0.064963505 0.094146132 0.085909113 1.7519333e-038
-0.062840343 0.09414231 0.08597593 1.7427138e-038
-0.060717396 0.094138451 0.08604268 1.7427138e-038
-0.058478016 0.093456611 0.086873211 1.7519333e-038
-0.056114089 0.092096753 0.088467814 1.7611529e-038
-0.053861655 0.091414817 0.089298643 1.7703725e-038
-0.051728848 0.091410756 0.089365482 1.7793754e-038
-0.049723797 0.092084557 0.088668004 1.7699396e-038
-0.047594175 0.092080407 0.088734612 1.6122347e-038
-0.04533191 0.091398291 0.08956553 1.6658598e-038
-0.043200098 0.091394052 0.089632086 1.4073521e-038
-0.041068505 0.09138979 0.08969862 1.1494923e-038
-0.03865514 0.09002956 0.091294318 1.3346397e-038
-0.036374908 0.089347243 0.092125595 9.4713063e-039
-0.034235965 0.089342877 0.092192218 1.1416058e-038
-0.032097261 0.089338452 0.092258774 1.086828e-038
-0.029958811 0.089334011 0.092325293 8.5569128e-039
-0.027975142 0.090007544 0.091626748 1.4834133e-038
-0.025839891 0.090003051 0.091693081 6.0777117e-039
-0.023384981 0.088642508 0.093289874 1.3271127e-038
-0.020919479 0.087281972 0.094886944 1.1336463e-038
-0.018608795 0.086599395 0.095718913 6.4479432e-039
-0.016461 0.086594813 0.095785558 1.2164794e-038
-0.013971905 0.085234128 0.097383328 5.615307e-039
-0.011472249 0.083873443 0.098981351 7.0879176e-039
-0.0089620203 0.082512677 0.10057974 7.5514153e-039
-0.0066200844 0.08182998 0.10141259 8.1071114e-039
-0.16257352 0.10111057 0.071959339 1.6782476e-038
-0.16044916 0.10246906 0.070514821 1.7058355e-038
-0.15835722 0.10246862 0.070585005 1.7334943e-038
-0.15627337 0.10178869 0.071412764 1.7242748e-038
-0.15418945 0.10042921 0.07299839 1.7150196e-038
-0.15208946 0.10042851 0.0730685 1.7150912e-038
-0.14998953 0.10042772 0.073138498 1.7519333e-038
-0.14788966 0.10042687 0.073208399 1.7888116e-038
-0.1457843 0.099746495 0.074036293 1.7611529e-038
-0.14368184 0.099745452 0.074106038 1.7611889e-038
-0.14157946 0.09974432 0.074175671 1.7427854e-038
-0.13947713 0.099743113 0.074245192 1.7427494e-038
-0.13734211 0.098382965 0.075831577 1.7427494e-038
-0.13523455 0.098381579 0.075901046 1.7704078e-038
-0.13310525 0.097700685 0.076729074 1.7703001e-038
-0.13099517 0.097699136 0.076798424 1.8070343e-038
-0.12885793 0.097018033 0.077626534 1.8345844e-038
-0.12674533 0.09701632 0.07769575 1.8621708e-038
-0.12463287 0.097014502 0.077764824 1.7700427e-038
-0.12248514 0.096333183 0.078592926 1.7515667e-038
-0.12037022 0.096331224 0.078661881 1.7699323e-038
-0.11817376 0.094970286 0.080249332 1.7514926e-038
-0.11609724 0.095647611 0.079558864 1.7975173e-038
-0.11398002 0.095645405 0.079627596 1.8158485e-038
-0.11186296 0.095643125 0.079696208 1.7973374e-038
-0.10969436 0.094961308 0.080524378 1.8157396e-038
-0.10757492 0.094958879 0.080592878 1.8064483e-038
-0.10551274 0.095635839 0.079901464 1.8156302e-038
-0.10327667 0.094274268 0.081489511 1.7419091e-038
-0.10109247 0.093592137 0.082317784 1.7047069e-038
-0.098968282 0.093589395 0.082386039 1.7137835e-038
-0.096912257 0.094266072 0.081694029 1.7414071e-038
-0.094791152 0.094263196 0.081762023 1.6492469e-038
-0.092596844 0.093580768 0.082590245 1.7599538e-038
-0.090473413 0.093577757 0.082658127 1.7792622e-038
-0.088350207 0.093574673 0.082725905 1.7978474e-038
-0.086227193 0.093571514 0.082793579 1.7334928e-038
-0.084104374 0.093568325 0.082861185 1.7520041e-038
-0.081981786 0.093565032 0.082928687 1.7335295e-038
-0.079859398 0.093561694 0.0829961 1.7427139e-038
-0.07764487 0.092878774 0.083824359 1.7242746e-038
-0.075330049 0.091516256 0.085413747 1.7058355e-038
-0.073200203 0.091512725 0.085481167 1.7703725e-038
-0.070970081 0.090829574 0.086309761 1.770408e-038
-0.068941206 0.091505498 0.085615754 1.7519689e-038
-0.066706143 0.09082222 0.086444356 1.7519689e-038
-0.06457451 0.090818465 0.086511545 1.7519689e-038
-0.062443126 0.090814643 0.08657863 1.770408e-038
-0.060197931 0.090131238 0.087407306 1.770408e-038
-0.058064319 0.090127327 0.087474346 1.7611885e-038
-0.055692032 0.088764228 0.089064911 1.770408e-038
-0.053431313 0.08808066 0.0898939 1.7519333e-038
-0.05129033 0.088076577 0.08996097 1.6875044e-038
-0.049404752 0.089431629 0.08850389 1.7150907e-038
-0.047269657 0.089427494 0.088570699 1.7150907e-038
-0.045134835 0.089423306 0.088637426 1.8621354e-038
-0.043000247 0.089419089 0.088704109 1.5762929e-038
-0.040865902 0.08941485 0.08877074 1.4100901e-038
-0.038308483 0.087371707 0.091124803 1.1609805e-038
-0.036022712 0.086687751 0.091954134 1.1787711e-038
-0.033731803 0.086003758 0.092783578 1.1138762e-038
-0.031883381 0.087358594 0.091324955 8.560168e-039
-0.029590264 0.086674541 0.092154421 6.7230895e-039
-0.027446613 0.086670086 0.092221089 6.6308911e-039
-0.025145883 0.085985966 0.093050703 5.2479538e-039
-0.023000054 0.085981451 0.093117379 5.4345115e-039
-0.020691695 0.085297279 0.093947195 7.1883893e-039
-0.018709052 0.085972391 0.093250662 6.8192788e-039
-0.016227635 0.084608458 0.094843931 8.6639131e-039
-0.013735655 0.08324454 0.096437462 5.9938258e-039
-0.010886041 0.080521196 0.099558324 4.7952812e-039
-0.0083675496 0.079157196 0.10115267 3.5016641e-039
-0.0060173967 0.078472793 0.10198369 2.6737013e-039
-0.16256532 0.097797319 0.072567724 1.8071774e-038
-0.16043283 0.099159107 0.071127787 1.6966513e-038
-0.1583326 0.099158682 0.071198262 1.6873965e-038
-0.1562324 0.09915816 0.071268618 1.6965805e-038
-0.15413751 0.098476484 0.072094455 1.7058001e-038
-0.15203466 0.098475799 0.072164677 1.7519335e-038
-0.14993188 0.098475009 0.072234772 1.7427138e-038
-0.14782916 0.09847416 0.072304755 1.7335298e-038
-0.14572085 0.097792149 0.07313063 1.7427494e-038
-0.14360723 0.09711004 0.073956557 1.7611882e-038
-0.14149925 0.09710893 0.074026391 1.7519686e-038
-0.13937762 0.096426636 0.074852347 1.7611162e-038
-0.13725063 0.095744237 0.075678438 1.7795553e-038
-0.13511831 0.095061786 0.076504521 1.7795197e-038
-0.13300253 0.095060326 0.076574177 1.72431e-038
-0.13088688 0.095058784 0.076643713 1.7426771e-038
-0.12877135 0.095057152 0.07671313 1.714873e-038
-0.12662587 0.094374359 0.077539235 1.6593015e-038
-0.12450783 0.094372563 0.077608511 1.6961403e-038
-0.12235446 0.093689606 0.078434668 1.7422382e-038
-0.12023397 0.093687646 0.078503817 1.7790438e-038
-0.1180318 0.092323393 0.080087215 1.7698241e-038
-0.11599344 0.093683496 0.078641817 1.7697521e-038
-0.11387338 0.093681313 0.07871066 1.7974461e-038
-0.11180254 0.09436015 0.078021988 1.8067014e-038
-0.10958196 0.092995562 0.079605579 1.8065936e-038
-0.10745966 0.09299314 0.079674177 1.815741e-038
-0.10533755 0.092990629 0.079742663 1.7788617e-038
-0.10309578 0.091625839 0.081326611 1.8065203e-038
-0.10090595 0.09094207 0.082152933 1.8157032e-038
-0.098776221 0.090939343 0.082221396 1.7879377e-038
-0.096714728 0.091617674 0.081531741 1.7234362e-038
-0.09451732 0.090933673 0.082358025 1.7783202e-038
-0.092314683 0.090249598 0.083184376 1.7046719e-038
-0.09018302 0.090246588 0.083252534 1.6684814e-038
-0.088051558 0.090243511 0.083320603 1.7146885e-038
-0.085920304 0.090240382 0.083388597 1.5486656e-038
-0.083789259 0.09023717 0.083456464 1.6410431e-038
-0.08165843 0.0902339 0.083524264 1.7333485e-038
-0.07952781 0.090230562 0.083591953 1.7611529e-038
-0.077304959 0.089545973 0.084418423 1.7519333e-038
-0.074981757 0.088180184 0.086003818 1.7335298e-038
-0.072843686 0.08817666 0.086071521 1.7335298e-038
-0.070705853 0.088173077 0.086139135 1.724346e-038
-0.068568259 0.088169441 0.086206682 1.724346e-038
-0.066430889 0.088165745 0.086274132 1.7335655e-038
-0.064402476 0.088843182 0.085582182 1.7335658e-038
-0.062045459 0.087477006 0.087168209 1.7519689e-038
-0.059791986 0.086791947 0.087995008 1.7427494e-038
-0.057650175 0.086788043 0.088062346 1.7334942e-038
-0.055389039 0.086102843 0.088889316 1.7242746e-038
-0.053000521 0.084736422 0.090476073 1.7427138e-038
-0.050851345 0.084732346 0.090543441 1.7427138e-038
-0.048957746 0.086090684 0.089090936 1.7334942e-038
-0.046944853 0.086767823 0.08839798 1.7611529e-038
-0.044671454 0.086082384 0.089225039 1.7516815e-038
-0.042392917 0.085396923 0.090052158 5.4366821e-039
-0.040109206 0.084711425 0.090879396 8.5731328e-039
-0.037679143 0.083344594 0.092467144 8.7578786e-039
-0.035382442 0.082659014 0.093294717 8.9408265e-039
-0.033373769 0.083335899 0.092601389 7.9241747e-039
-0.031370785 0.084012792 0.091907777 1.1245731e-038
-0.029221447 0.084008373 0.091974691 9.5908847e-039
-0.027072333 0.084003933 0.092041574 8.4849028e-039
-0.024766065 0.083318137 0.092869297 6.6424308e-039
-0.022614772 0.083313629 0.092936151 5.6290033e-039
-0.020300919 0.082627811 0.093763992 4.520502e-039
-0.018312929 0.083304584 0.093069814 3.7800685e-039
-0.015489494 0.080574803 0.096181296 6.6366953e-039
-0.012986513 0.07920754 0.097770929 3.6846386e-039
-0.010125753 0.07647761 0.10088357 3.4105545e-039
-0.0077725793 0.07579165 0.10171256 3.5023844e-039
-0.0055932812 0.075786993 0.10178018 2.0279774e-039
-0.16255671 0.094474003 0.073162951 1.6598085e-038
-0.1604294 0.095156401 0.072480761 1.6966873e-038
-0.15831816 0.095155969 0.072551593 1.6966159e-038
-0.15620695 0.095155463 0.072622329 1.7058355e-038
-0.15409058 0.095837563 0.071939453 1.7058001e-038
-0.15197971 0.096519589 0.071256295 1.7518258e-038
-0.14987408 0.096518815 0.071326502 1.742606e-038
-0.14776553 0.095835239 0.072150327 1.7519689e-038
-0.14565159 0.095151588 0.072974235 1.7703712e-038
-0.14352389 0.093785092 0.074552186 1.834583e-038
-0.14139654 0.093101256 0.075376309 1.7513187e-038
-0.13926381 0.09241733 0.076200515 1.843767e-038
-0.13715884 0.093098775 0.075516388 1.7977779e-038
-0.13504013 0.093097404 0.075586252 1.8345476e-038
-0.13292153 0.093095943 0.075655997 1.8803206e-038
-0.13077833 0.092411682 0.076480098 1.7048575e-038
-0.12865722 0.092410058 0.076549716 1.778609e-038
-0.12653622 0.092408352 0.07661923 1.7787165e-038
-0.12441534 0.092406578 0.076688632 1.7971933e-038
-0.12222347 0.091039211 0.078267597 1.7972653e-038
-0.12009744 0.091037259 0.078336962 1.7696434e-038
-0.11793055 0.090352491 0.079161197 1.7789349e-038
-0.11580207 0.090350389 0.079230435 1.8158135e-038
-0.11372017 0.09103094 0.078544378 1.7421654e-038
-0.11154559 0.090345941 0.079368576 1.7606047e-038
-0.10941758 0.090343609 0.079437502 1.7606047e-038
-0.1071806 0.088975675 0.081017181 1.7606756e-038
-0.1050475 0.088973187 0.081086062 1.7606753e-038
-0.10285459 0.088287815 0.081910498 1.7698597e-038
-0.10071912 0.08828517 0.081979275 1.7606047e-038
-0.098518439 0.087599702 0.082803726 1.7330186e-038
-0.096380651 0.087596901 0.082872368 1.7237995e-038
-0.094243042 0.087594047 0.082940944 1.8064494e-038
-0.092032075 0.08690834 0.083765447 1.8248886e-038
-0.089892164 0.08690533 0.083833888 1.8066659e-038
-0.087673485 0.086219475 0.084658459 1.9079735e-038
-0.085612953 0.086899139 0.083970509 1.639919e-038
-0.083473675 0.086895935 0.08403869 1.6766518e-038
-0.08142174 0.087575465 0.083350271 1.8247451e-038
-0.079105943 0.08620654 0.084931299 1.7610072e-038
-0.076964609 0.08620315 0.084999293 1.7518965e-038
-0.074728265 0.0855169 0.085823938 1.7150902e-038
-0.072584674 0.085513383 0.08589185 1.7520401e-038
-0.070441343 0.085509807 0.085959673 1.7151619e-038
-0.068298228 0.085506171 0.086027399 1.7243098e-038
-0.066155359 0.085502505 0.086095087 1.7150904e-038
-0.063903928 0.08481589 0.086919874 1.7427491e-038
-0.061535835 0.083446428 0.088501975 1.7335295e-038
-0.059271358 0.082759723 0.089327 1.7704078e-038
-0.057118651 0.082755834 0.089394711 1.7058711e-038
-0.054966167 0.08275187 0.08946234 1.7243102e-038
-0.052691605 0.082064986 0.090287559 1.7611529e-038
-0.050411906 0.08137808 0.091112815 1.7427138e-038
-0.048510294 0.082739741 0.089664824 1.7334943e-038
-0.046358828 0.082735628 0.089732207 1.7427138e-038
-0.044207629 0.082731448 0.089799508 1.8625682e-038
-0.041649096 0.080678567 0.092140861 1.1339366e-038
-0.039490297 0.080674306 0.092208304 2.8588198e-039
-0.03733176 0.080670014 0.092275694 2.7727535e-039
-0.035029504 0.079982772 0.0931013 1.944453e-039
-0.032868776 0.079978421 0.093168676 2.224637e-039
-0.030857705 0.080656931 0.092477553 5.6358725e-039
-0.028700206 0.08065252 0.092544757 8.4028162e-040
-0.02669774 0.081331 0.091853306 8.3967009e-039
-0.024228457 0.079960681 0.093437716 1.1526296e-038
-0.022069033 0.079956181 0.093504868 6.2704253e-039
-0.019584037 0.078585766 0.095089786 8.1132575e-039
-0.017254103 0.077898271 0.095915973 8.9422811e-039
-0.014750708 0.076527797 0.097501338 1.3090364e-038
-0.012236755 0.075157255 0.099087067 8.6620998e-039
-0.009885937 0.074469678 0.099913865 2.5793421e-039
-0.0075299805 0.073782079 0.1007408 2.672258e-039
-0.0049897386 0.072411455 0.10232731 2.9502742e-039
-0.16254765 0.091140628 0.07374499 1.6413337e-038
-0.1604121 0.091824643 0.073065251 1.7059068e-038
-0.15829259 0.091824219 0.073136382 1.7058711e-038
-0.15616526 0.092508048 0.072456136 1.7057632e-038
-0.1540383 0.093876198 0.071024247 1.751717e-038
-0.15192941 0.093191117 0.071846217 1.7884876e-038
-0.14981547 0.093190342 0.071916692 1.7609365e-038
-0.14769855 0.092505135 0.07273867 1.7055457e-038
-0.14558201 0.092504196 0.072809018 1.5760737e-038
-0.14345708 0.09181881 0.073631048 1.5662747e-038
-0.14132679 0.091133341 0.074453138 1.5935369e-038
-0.13919114 0.090447731 0.075275332 1.5383291e-038
-0.13708338 0.091130868 0.074593425 1.8064915e-038
-0.13496183 0.091129504 0.074663393 1.5946219e-038
-0.13284037 0.091128059 0.074733242 1.648854e-038
-0.13069424 0.090442114 0.075555339 1.7594142e-038
-0.1285428 0.089756131 0.076377481 1.7415131e-038
-0.12641624 0.089754432 0.076447189 1.7600246e-038
-0.12425687 0.089068294 0.077269375 1.7600977e-038
-0.12209222 0.088382043 0.078091614 1.7416954e-038
-0.11999897 0.089064501 0.077408418 1.7694983e-038
-0.11787022 0.089062475 0.077477768 1.7142894e-038
-0.11574162 0.089060381 0.077547021 1.7604237e-038
-0.11361317 0.089058228 0.077616192 1.71447e-038
-0.11143567 0.088371582 0.078438342 1.751313e-038
-0.10930482 0.08836925 0.078507371 1.7698949e-038
-0.10706487 0.086998016 0.080082916 1.7330524e-038
-0.10487156 0.086311139 0.080905296 1.7422719e-038
-0.10267302 0.085624181 0.081727758 1.7975184e-038
-0.1005948 0.086305946 0.081043154 1.8343967e-038
-0.098391213 0.085618839 0.081865579 1.8065594e-038
-0.096182376 0.084931649 0.082688078 1.7420225e-038
-0.093968302 0.084244385 0.083510667 1.6867762e-038
-0.091896296 0.084925883 0.082825504 1.4563935e-038
-0.089677222 0.084238455 0.083648033 1.5761033e-038
-0.087531976 0.084235415 0.083716601 1.7694283e-038
-0.085305169 0.083547816 0.084539279 1.4091062e-038
-0.083242126 0.084229112 0.083853461 1.667252e-038
-0.081097543 0.084225863 0.083921745 1.7503375e-038
-0.078773364 0.082853623 0.085498832 1.6499356e-038
-0.076531187 0.082165785 0.086321615 1.6779211e-038
-0.074379146 0.082162328 0.086389869 1.7885217e-038
-0.072325379 0.082843289 0.08570341 1.75186e-038
-0.070176534 0.082839727 0.085771427 1.7243454e-038
-0.068027914 0.082836129 0.085839383 1.7335295e-038
-0.065879531 0.082832456 0.085907243 1.7243098e-038
-0.063622527 0.082144253 0.086730041 1.72431e-038
-0.061248749 0.080771483 0.088308118 1.7427491e-038
-0.05897871 0.080083154 0.089131206 1.7335298e-038
-0.056820493 0.080079272 0.089199118 1.7335298e-038
-0.054662529 0.080075331 0.089266948 1.7150551e-038
-0.052504819 0.080071345 0.089334711 1.7334942e-038
-0.050222255 0.079382807 0.090157948 1.7334942e-038
-0.047934532 0.078694217 0.09098129 1.7334943e-038
-0.045772191 0.078690089 0.091049023 1.7610451e-038
-0.04347688 0.07800141 0.091872506 1.6597022e-038
-0.041040454 0.076628104 0.093451984 2.582942e-039
-0.038870763 0.07662385 0.093519807 1.1621718e-038
-0.036842704 0.077304095 0.092831545 7.0123105e-039
-0.034676258 0.077299774 0.092899159 1.0054426e-038
-0.032656856 0.077980004 0.092210464 6.5553121e-039
-0.030493643 0.077975638 0.092277922 9.9683468e-039
-0.028330678 0.077971235 0.09234532 5.7255514e-039
-0.026167981 0.077966809 0.092412673 1.1435541e-038
-0.023847958 0.07727775 0.093236588 1.235497e-038
-0.021522811 0.076588698 0.094060585 5.7161711e-039
-0.019192521 0.075899594 0.094884694 7.8359447e-039
-0.016857048 0.075210467 0.095708944 5.1611854e-039
-0.014348076 0.073836684 0.097290263 7.1880474e-039
-0.011828512 0.072462909 0.098871857 4.4232547e-039
-0.0096460134 0.072458297 0.098939642 1.0877303e-038
-0.0074637248 0.072453693 0.099007435 1.6317563e-038
-0.004206561 0.068341315 0.10361854 1.7240594e-038
-0.16255406 0.08711113 0.075062707 1.8898295e-038
-0.16039439 0.088482782 0.073636577 1.7242378e-038
-0.15827703 0.087796368 0.07445699 1.7701192e-038
-0.15613101 0.089167841 0.073030181 1.7977048e-038
-0.15400094 0.089853287 0.072352044 1.7055443e-038
-0.15187867 0.089852601 0.072422937 1.6687347e-038
-0.14975643 0.089851841 0.07249371 1.6778456e-038
-0.14763114 0.08916495 0.073313862 1.7234745e-038
-0.14550632 0.089164011 0.073384494 1.6772684e-038
-0.14337301 0.088476986 0.074204661 1.72304e-038
-0.14124562 0.088475868 0.074275143 1.6488866e-038
-0.13911831 0.088474691 0.074345537 1.703844e-038
-0.1370078 0.089159414 0.073665909 1.6205083e-038
-0.13486396 0.088472053 0.07448598 1.6664983e-038
-0.13271481 0.087784603 0.075306125 1.7035563e-038
-0.13056031 0.087097071 0.076126345 1.6944807e-038
-0.12842807 0.087095462 0.07619635 1.7132068e-038
-0.12626566 0.086407751 0.077016599 1.7409376e-038
-0.12409794 0.085719928 0.077836983 1.796327e-038
-0.12196065 0.085718066 0.077906832 1.7872878e-038
-0.11978506 0.085030116 0.078727208 1.8243101e-038
-0.11768647 0.085714132 0.07804624 1.7692088e-038
-0.1155496 0.085712045 0.078115776 1.7877564e-038
-0.11336631 0.085023865 0.078936115 1.7787533e-038
-0.11117775 0.08433558 0.079756498 1.8157399e-038
-0.1090359 0.084333256 0.0798259 1.8249595e-038
-0.1067301 0.082272694 0.082148694 1.7884035e-038
-0.1046379 0.082956299 0.081466861 1.7608527e-038
-0.10249117 0.082953751 0.081536137 1.7055372e-038
-0.10047034 0.084323227 0.080102488 1.5856475e-038
-0.098198265 0.082948431 0.081674375 1.6131997e-038
-0.095915526 0.081573509 0.083246559 1.5671742e-038
-0.09369313 0.080884606 0.084067285 1.6316048e-038
-0.091686659 0.082253844 0.082632817 1.7052907e-038
-0.08946196 0.081564784 0.083453424 1.8160331e-038
-0.087311186 0.081561752 0.083522193 1.6963954e-038
-0.085078783 0.080872558 0.084342867 1.6593371e-038
-0.083010301 0.081555471 0.083659448 1.6677975e-038
-0.080860175 0.081552237 0.083727933 1.6676151e-038
-0.078530319 0.080176748 0.085300878 1.658357e-038
-0.076282538 0.079487249 0.086121775 1.7045266e-038
-0.074124984 0.079483829 0.086190268 1.7321501e-038
-0.071967669 0.079480328 0.086258657 1.7597747e-038
-0.069810592 0.079476789 0.086326979 1.870917e-038
-0.06755022 0.078787073 0.087147929 1.8346548e-038
-0.065390915 0.078783423 0.087216184 1.7519319e-038
-0.063231871 0.078779712 0.087284341 1.7150907e-038
-0.060849737 0.077403687 0.088858359 1.72431e-038
-0.058685768 0.077399857 0.088926531 1.7335295e-038
-0.056522053 0.077395983 0.088994659 1.7058711e-038
-0.054358605 0.077392064 0.089062698 1.7427494e-038
-0.052072905 0.076701954 0.089883983 1.7335298e-038
-0.049907278 0.076697923 0.089951955 1.7242746e-038
-0.047613993 0.076007664 0.090773396 1.7150552e-038
-0.045446161 0.076003566 0.090841368 8.1150245e-039
-0.04314528 0.075313248 0.091662876 7.3831053e-040
-0.040975284 0.075309053 0.091730781 3.2279499e-039
-0.038666829 0.074618645 0.092552453 1.0880558e-038
-0.036636066 0.075300574 0.091866456 7.008726e-039
-0.034322724 0.074610084 0.092688181 5.6304887e-039
-0.032297935 0.075291939 0.092001893 2.8682225e-039
-0.029979719 0.074601367 0.092823669 5.9041903e-039
-0.027960856 0.0752832 0.092137143 3.230517e-039
-0.025637766 0.074592561 0.092959017 5.2591754e-039
-0.023467176 0.074588113 0.093026601 7.1001831e-039
-0.021136504 0.073897436 0.093848668 7.8344916e-039
-0.018963752 0.073892929 0.093916267 1.0878024e-038
-0.016625484 0.073202156 0.094738558 1.3275827e-038
-0.014282061 0.072511375 0.095560916 1.6871094e-038
-0.011762337 0.071134336 0.097138248 1.816183e-038
-0.0095797963 0.071129754 0.097206078 1.705656e-038
-0.0072209546 0.070438892 0.098028854 1.6596302e-038
-0.16252819 0.084443532 0.074869603 1.7331322e-038
-0.16037621 0.085130878 0.074194692 1.6593385e-038
-0.15824008 0.085130453 0.074266382 1.6500465e-038
-0.15608864 0.086505234 0.072844066 1.6594431e-038
-0.15395308 0.087192282 0.07216832 1.6778823e-038
-0.15182522 0.087191612 0.072239392 1.7054322e-038
-0.14969742 0.087190852 0.072310373 1.686992e-038
-0.14756967 0.087190002 0.072381221 1.7604605e-038
-0.14543608 0.086501412 0.073199339 1.7603162e-038
-0.14329714 0.08581274 0.074017547 1.7418405e-038
-0.14117551 0.086499296 0.073340669 1.759811e-038
-0.13904534 0.086498119 0.073411174 1.6026813e-038
-0.13689849 0.085809186 0.074229307 1.6573142e-038
-0.1347463 0.085120186 0.075047523 1.6389828e-038
-0.13261099 0.085118756 0.075117864 1.6205791e-038
-0.13045087 0.084429547 0.075936168 1.6390548e-038
-0.12828542 0.083740279 0.076754488 1.6390908e-038
-0.12611465 0.083050936 0.077572897 1.6208671e-038
-0.12393858 0.082361497 0.078391343 1.6760045e-038
-0.12179302 0.082359664 0.078461505 1.6761845e-038
-0.11960907 0.081670076 0.079280034 1.7317899e-038
-0.1175435 0.083043411 0.077852927 1.7229305e-038
-0.11540107 0.083041348 0.077922694 1.7691366e-038
-0.11321215 0.082351506 0.078741059 1.7603131e-038
-0.11101795 0.081661597 0.079559505 1.723543e-038
-0.10881849 0.080971569 0.08037807 1.6498231e-038
-0.10661377 0.080281489 0.081196651 1.6408551e-038
-0.1044613 0.080279037 0.081266247 1.6779132e-038
-0.10230903 0.080276497 0.081335716 1.7701107e-038
-0.10015693 0.080273889 0.081405088 1.8715629e-038
-0.097939394 0.079583496 0.082223698 1.7610402e-038
-0.095784962 0.079580754 0.082292974 1.7610769e-038
-0.093559675 0.078890212 0.083111651 1.7794806e-038
-0.09140294 0.078887329 0.08318083 1.8069235e-038
-0.089322932 0.079572082 0.08250019 1.7240189e-038
-0.08709012 0.078881331 0.083318852 1.7426375e-038
-0.084852107 0.078190483 0.084137656 1.7885558e-038
-0.082608886 0.077499598 0.08495649 1.7885558e-038
-0.080535173 0.078184091 0.084275313 1.8253979e-038
-0.078377046 0.078180812 0.084344007 1.8065981e-038
-0.076126389 0.077489734 0.085162833 1.8243471e-038
-0.07387054 0.076798573 0.085981742 1.7320426e-038
-0.071609505 0.076107353 0.086800739 1.6860171e-038
-0.069343314 0.075416058 0.087619811 1.7044928e-038
-0.067279153 0.07610023 0.086937882 1.5664188e-038
-0.065008022 0.075408824 0.087756976 1.5765062e-038
-0.062840752 0.075405121 0.08782544 1.733565e-038
-0.060561992 0.074713558 0.088644691 1.72431e-038
-0.058392532 0.074709751 0.088713087 1.7335298e-038
-0.056223322 0.074705891 0.088781402 1.7243102e-038
-0.054174259 0.075389817 0.088098541 1.7243102e-038
-0.051763125 0.074010253 0.089668989 1.7611885e-038
-0.049591992 0.074006252 0.089737192 1.7334942e-038
-0.047165167 0.072626598 0.091307975 1.7334943e-038
-0.045119848 0.073310316 0.090624809 1.7058001e-038
-0.042813428 0.072618365 0.091444395 1.7242393e-038
-0.040637963 0.072614193 0.091512516 1.6412631e-038
-0.038323913 0.071922123 0.092332304 1.5396695e-038
-0.036146302 0.071917869 0.092400379 1.4750971e-038
-0.033824682 0.071225747 0.093220256 1.4290367e-038
-0.031791817 0.071909271 0.092536412 1.6228629e-038
-0.029465355 0.071217075 0.093356349 1.5951674e-038
-0.027438432 0.071900539 0.092672236 1.6688873e-038
-0.025107095 0.071208283 0.093492255 1.7334239e-038
-0.022928359 0.07120385 0.093560152 1.7795927e-038
-0.020589452 0.070511542 0.094380356 1.7888121e-038
-0.018571716 0.07119491 0.093695812 1.7241673e-038
-0.016559623 0.071878307 0.093011104 1.7333867e-038
-0.014216097 0.071185902 0.093831353 1.7333867e-038
-0.011696186 0.0698056 0.095404424 1.7241669e-038
-0.0093396716 0.06911315 0.096225053 1.678177e-038
-0.006801351 0.067732744 0.097798698 1.6597377e-038
-0.16250202 0.081769183 0.074667603 1.713894e-038
-0.16035759 0.081768833 0.07473968 1.7323343e-038
-0.15820284 0.082457706 0.074066937 1.7693557e-038
-0.15604597 0.08383581 0.072649062 1.7512042e-038
-0.15390489 0.084524527 0.071975678 1.7235823e-038
-0.1517693 0.08521314 0.071301959 1.7145069e-038
-0.14963864 0.085212387 0.071373031 1.7513851e-038
-0.14750479 0.08452224 0.072189137 1.7697522e-038
-0.14535958 0.083142683 0.073750623 1.7973389e-038
-0.14321224 0.082452379 0.07456696 1.7420581e-038
-0.14107101 0.082451284 0.074637942 1.6680125e-038
-0.13892983 0.082450099 0.074708819 1.4095039e-038
-0.13678876 0.082448833 0.07477957 1.5652277e-038
-0.13462822 0.081758194 0.075595923 1.5650831e-038
-0.1324846 0.081756771 0.075666562 1.6572424e-038
-0.13034113 0.081755266 0.075737081 1.6849011e-038
-0.12814233 0.08037506 0.077299431 1.638875e-038
-0.12599364 0.080373392 0.077369906 1.6665337e-038
-0.12381192 0.079682276 0.078186482 1.6389828e-038
-0.12166079 0.079680443 0.078256823 1.7405408e-038
-0.11947121 0.078989215 0.079073399 1.8050784e-038
-0.11731764 0.078987226 0.079143636 1.8142981e-038
-0.1150762 0.077606499 0.080706738 1.7128473e-038
-0.11291751 0.077604361 0.080776952 1.7594493e-038
-0.11075898 0.077602126 0.080847032 1.6955608e-038
-0.10854846 0.076910451 0.08166384 1.8525118e-038
-0.10638756 0.076908082 0.081733815 1.7423839e-038
-0.10422683 0.076905623 0.081803679 1.7700793e-038
-0.10206629 0.076903097 0.081873439 1.8253259e-038
-0.099905938 0.076900505 0.081943125 1.7608974e-038
-0.097680062 0.076208495 0.082759894 1.7793366e-038
-0.095448941 0.075516395 0.083576724 1.7517496e-038
-0.09328375 0.075513594 0.08364629 1.7333462e-038
-0.09104491 0.074821346 0.084463201 1.6873204e-038
-0.088954009 0.07550776 0.083785094 1.5858695e-038
-0.08671017 0.074815363 0.084601991 1.7150513e-038
-0.084543139 0.074812286 0.084671251 1.7150877e-038
-0.082291603 0.074119762 0.08548823 1.6873936e-038
-0.080209732 0.074805938 0.084809512 1.6875025e-038
-0.077953227 0.07411328 0.085626483 1.7150537e-038
-0.075691544 0.07342051 0.086443573 1.7519307e-038
-0.073424675 0.072727732 0.087260731 1.7979195e-038
-0.071349174 0.073413663 0.086581483 1.7695713e-038
-0.069077387 0.072720751 0.087398626 1.7049271e-038
-0.06690412 0.07271716 0.087467439 1.6868517e-038
-0.064624682 0.072024137 0.088284701 1.7703356e-038
-0.062449206 0.072020449 0.088353463 1.7427494e-038
-0.060162164 0.071327291 0.089170806 1.7335298e-038
-0.057984497 0.071323492 0.089239493 1.7611885e-038
-0.055924334 0.072009087 0.088559285 1.7335298e-038
-0.053749893 0.07200519 0.088627733 1.7243102e-038
-0.051453069 0.071311824 0.089445136 1.7243102e-038
-0.04927646 0.071307845 0.089513563 1.7610806e-038
-0.046972048 0.07061433 0.090331122 1.751861e-038
-0.044924043 0.071299747 0.089650162 1.7334222e-038
-0.042614739 0.07060615 0.090467796 1.7242026e-038
-0.040436506 0.070602 0.090536043 1.7334943e-038
-0.037980758 0.069218881 0.092103258 1.7519335e-038
-0.035797652 0.069214649 0.092171572 1.7426783e-038
-0.033470511 0.068520911 0.092989512 1.7426783e-038
-0.031285256 0.068516605 0.093057796 1.7242392e-038
-0.028950546 0.067822777 0.093875878 1.7150196e-038
-0.026763128 0.067818411 0.09394414 1.7150552e-038
-0.024575979 0.067814022 0.094012387 1.7427139e-038
-0.02238911 0.067809589 0.094080552 1.7150551e-038
-0.020202497 0.067805156 0.09414871 1.7150907e-038
-0.018179394 0.0684902 0.09346652 1.7243102e-038
-0.015996026 0.068485722 0.093534514 1.7058711e-038
-0.013475643 0.067102134 0.095103413 1.6874677e-038
-0.010773409 0.06502901 0.097423099 1.6505895e-038
-0.008577317 0.06502445 0.097491421 1.6413702e-038
-0.0060280245 0.063640751 0.099061146 1.6321143e-038
-0.16249125 0.078397036 0.07519912 1.7228609e-038
-0.16032556 0.079087675 0.074528977 1.7411557e-038
-0.15816531 0.079778187 0.073858581 1.824132e-038
-0.15600303 0.081159569 0.072445258 1.7785029e-038
-0.15385644 0.081849918 0.0717742 1.7602087e-038
-0.15171744 0.08184924 0.071845651 1.732802e-038
-0.1495785 0.081848487 0.071917005 1.7143993e-038
-0.14743626 0.081156716 0.072731242 1.760605e-038
-0.14528868 0.08046484 0.07354556 1.7605327e-038
-0.14313571 0.07977289 0.074359953 1.7788998e-038
-0.14100036 0.080462754 0.073687866 1.7510969e-038
-0.13884215 0.079770632 0.074502215 1.6495731e-038
-0.13669549 0.079769373 0.074573159 1.6027184e-038
-0.13452931 0.07907708 0.07538756 1.4362618e-038
-0.13235779 0.078384683 0.07620208 1.3901276e-038
-0.13018094 0.077692233 0.077016637 1.565011e-038
-0.12799878 0.076999702 0.077831239 1.6295837e-038
-0.12584181 0.076998025 0.077901997 1.6573142e-038
-0.12365175 0.076305322 0.078716666 1.6666416e-038
-0.12152828 0.076994464 0.078043222 1.7496896e-038
-0.11937173 0.076992571 0.07811369 1.6759687e-038
-0.11717395 0.076299615 0.078928292 1.5465708e-038
-0.11497087 0.075606555 0.079743013 1.4728509e-038
-0.11276254 0.074913457 0.080557771 1.8052592e-038
-0.11059846 0.074911244 0.080628082 1.7877933e-038
-0.10843455 0.074908949 0.080698259 1.8433643e-038
-0.10627081 0.074906595 0.080768362 1.7883374e-038
-0.10404959 0.07421317 0.081583127 1.7607876e-038
-0.10182311 0.073519677 0.08239799 1.7792634e-038
-0.099591419 0.072826095 0.08321292 1.7331669e-038
-0.097354479 0.072132401 0.084027968 1.7516779e-038
-0.095180832 0.072129674 0.084097922 1.7517854e-038
-0.093007408 0.072126865 0.084167749 1.7517854e-038
-0.090834178 0.072123997 0.084237494 1.69654e-038
-0.088737823 0.072812118 0.083561711 1.6504422e-038
-0.086408995 0.071427055 0.085122205 1.678173e-038
-0.084069543 0.070041955 0.086682908 1.7150879e-038
-0.081889071 0.07003881 0.086752549 1.7243797e-038
-0.079796329 0.070726633 0.086076356 1.724344e-038
-0.07770925 0.071414404 0.085399896 1.7334208e-038
-0.075349033 0.07002902 0.086960949 1.7335636e-038
-0.073073857 0.069334559 0.087776281 1.7611491e-038
-0.070990235 0.070022181 0.087099418 1.6227455e-038
-0.068811193 0.070018686 0.087168552 1.5395922e-038
-0.066632397 0.070015147 0.087237604 1.7885584e-038
-0.064347394 0.069320425 0.088052936 1.742606e-038
-0.062166408 0.069316767 0.088121921 1.7427139e-038
-0.059873775 0.068621978 0.088937327 1.7242746e-038
-0.057690606 0.068618208 0.089006238 1.7242746e-038
-0.055507716 0.068614379 0.089075051 1.7335298e-038
-0.053325083 0.068610512 0.089143805 1.7243102e-038
-0.05101997 0.067915529 0.089959383 1.7704078e-038
-0.048835177 0.067911558 0.090028077 1.7611162e-038
-0.046650644 0.067907557 0.090096734 1.7610806e-038
-0.044466384 0.067903496 0.090165295 1.751861e-038
-0.042282403 0.067899406 0.090233825 1.7150907e-038
-0.039962418 0.06720417 0.091049574 1.7335298e-038
-0.037637308 0.066508882 0.09186542 1.7519689e-038
-0.035307042 0.065813527 0.09268146 1.7427494e-038
-0.033116043 0.065809272 0.092749991 1.7519333e-038
-0.030925309 0.065804996 0.092818491 1.7335298e-038
-0.028435294 0.064418405 0.094382346 1.6689929e-038
-0.026087208 0.063722916 0.095198713 1.5952364e-038
-0.024044408 0.064409681 0.094519444 1.5030767e-038
-0.021691479 0.063714117 0.095335886 1.3555277e-038
-0.019494038 0.063709691 0.095404409 1.2540402e-038
-0.017296847 0.063705228 0.095472902 1.3002103e-038
-0.01509994 0.063700758 0.095541343 1.1896836e-038
-0.012734602 0.063005082 0.096358068 1.2448927e-038
-0.010364082 0.062309351 0.097174957 1.2541122e-038
-0.0079884799 0.061613634 0.097991951 1.2174143e-038
-0.0052540815 0.059535474 0.10030624 1.5952361e-038
-0.16246441 0.075707413 0.074977189 1.5933195e-038
-0.16028032 0.077092245 0.073569126 1.6952364e-038
-0.15811731 0.077784464 0.072900936 1.7136769e-038
-0.15595976 0.078476548 0.072232507 1.7691392e-038
-0.15381241 0.07847596 0.072304361 1.7694634e-038
-0.15166512 0.078475289 0.072376102 1.7879031e-038
-0.14951718 0.07778196 0.073188514 1.7787922e-038
-0.14736389 0.07708849 0.074001037 1.7973034e-038
-0.1452052 0.076394983 0.074813597 1.7697168e-038
-0.14305001 0.076393977 0.074885167 1.7420581e-038
-0.1408949 0.076392904 0.074956641 1.7513131e-038
-0.13873987 0.076391734 0.075027995 1.7604605e-038
-0.13658495 0.07639049 0.075099252 1.7512397e-038
-0.13443013 0.076389171 0.075170398 1.7785368e-038
-0.13220808 0.0743099 0.077465922 1.6768693e-038
-0.13004531 0.074308418 0.077537127 1.6391278e-038
-0.12785478 0.073614247 0.078349881 1.4176424e-038
-0.12572014 0.074305192 0.07767918 1.4731034e-038
-0.12349114 0.072918251 0.079233736 1.5466797e-038
-0.12135947 0.073609047 0.078562751 1.601925e-038
-0.1191559 0.072914533 0.079375498 1.6389829e-038
-0.11698849 0.072912581 0.079446249 1.6667135e-038
-0.11477708 0.072217904 0.080259055 1.7129915e-038
-0.11256041 0.071523167 0.081071965 1.7408301e-038
-0.11043765 0.072213583 0.080400176 1.6397759e-038
-0.10821587 0.071518689 0.08121305 1.5940017e-038
-0.10604387 0.071516335 0.08128342 1.6863426e-038
-0.1038143 0.070821255 0.08209642 1.7513508e-038
-0.10157949 0.070126116 0.08290939 1.7790103e-038
-0.099339455 0.069430918 0.083722487 1.7147985e-038
-0.097094193 0.068735622 0.084535636 1.7332739e-038
-0.094912298 0.068732895 0.084605858 1.7240546e-038
-0.092873231 0.070115425 0.083189867 1.7332736e-038
-0.090697184 0.070112571 0.083259732 1.7333459e-038
-0.088444613 0.069417 0.084072761 1.7518574e-038
-0.086107373 0.068028659 0.085629269 1.7242709e-038
-0.083677374 0.065947622 0.087929398 1.7058327e-038
-0.081570812 0.066637158 0.08725591 1.7427831e-038
-0.079469934 0.067326635 0.086582154 1.7058329e-038
-0.077284388 0.067323402 0.086651839 1.7334915e-038
-0.074913077 0.06593474 0.088208966 1.7241998e-038
-0.072626874 0.065238677 0.08902251 1.5766854e-038
-0.070532389 0.065927923 0.088348225 1.733418e-038
-0.068342425 0.065924436 0.088417731 1.7519321e-038
-0.066152707 0.065920897 0.088487156 1.751861e-038
-0.063963257 0.065917306 0.088556513 1.7517535e-038
-0.061664794 0.065220945 0.089370064 1.7426417e-038
-0.059473153 0.065217234 0.089439332 1.7334222e-038
-0.057167076 0.064520724 0.09025304 1.7519333e-038
-0.055090681 0.065209672 0.089577682 1.7243102e-038
-0.052779719 0.064513065 0.090391405 1.7243102e-038
-0.050586458 0.064509161 0.090460487 1.7335295e-038
-0.048518978 0.065197989 0.089784667 1.7703357e-038
-0.046200745 0.064501218 0.090598434 1.7794477e-038
-0.044008277 0.064497188 0.090667315 1.751861e-038
-0.041816123 0.064493112 0.090736128 1.751861e-038
-0.039624222 0.064489007 0.090804897 1.7427138e-038
-0.037293561 0.063792109 0.091618828 1.7243102e-038
-0.035099525 0.06378793 0.09168756 1.7150907e-038
-0.032905769 0.063783683 0.09175621 1.7611885e-038
-0.030565109 0.063086666 0.092570327 1.7243102e-038
-0.028069468 0.061696824 0.094130129 1.5583578e-038
-0.025563266 0.060306884 0.09569025 1.2081225e-038
-0.023512406 0.060995299 0.095013402 1.4293923e-038
-0.021309232 0.060990911 0.095082186 1.3829342e-038
-0.019106342 0.0609865 0.095150925 1.2812673e-038
-0.016740339 0.060289264 0.095965609 1.4106654e-038
-0.01453527 0.060284808 0.096034363 1.5675777e-038
-0.011992928 0.058894679 0.097595364 1.6966513e-038
-0.0097830184 0.058890179 0.097664222 1.5767969e-038
-0.0073991707 0.058192797 0.09847942 1.5308072e-038
-0.16243729 0.073010951 0.07474643 1.4088596e-038
-0.16023496 0.075093359 0.072604656 1.6484928e-038
-0.15808935 0.074398711 0.073415257 1.7591982e-038
-0.15592358 0.075092442 0.072749265 1.7502663e-038
-0.15376796 0.075091861 0.072821409 1.7413e-038
-0.15161042 0.075785428 0.072154909 1.7782864e-038
-0.14945684 0.07509046 0.072965369 1.7786118e-038
-0.14729789 0.074395396 0.073775895 1.8063785e-038
-0.14513358 0.073700242 0.074586481 1.742058e-038
-0.14297281 0.073699243 0.07465826 1.7144714e-038
-0.14081213 0.073698178 0.074729934 1.7605341e-038
-0.13863716 0.073002733 0.075540602 1.7604262e-038
-0.13649102 0.073695786 0.074872948 1.7328029e-038
-0.13431084 0.07300017 0.075683571 1.7698941e-038
-0.13212532 0.072304539 0.076494254 1.7237608e-038
-0.12993447 0.071608797 0.077304959 1.6958857e-038
-0.12776625 0.07160724 0.077376246 1.585035e-038
-0.12559818 0.0716056 0.077447437 1.5292855e-038
-0.12336346 0.070215352 0.078997888 1.5195619e-038
-0.12119021 0.070213556 0.079069048 1.4086032e-038
-0.1190171 0.070211686 0.079140082 1.4912928e-038
-0.11684415 0.070209727 0.079211012 1.6206162e-038
-0.11467135 0.0702077 0.079281844 1.7407211e-038
-0.11245175 0.069511279 0.080092758 1.7316812e-038
-0.11022688 0.068814844 0.080903694 1.7040959e-038
-0.10794435 0.067424022 0.082455017 1.6766162e-038
-0.10576139 0.067421682 0.082525797 1.6766517e-038
-0.10357858 0.067419268 0.082596451 1.6858358e-038
-0.10139599 0.067416795 0.08266703 1.7042752e-038
-0.09921357 0.067414246 0.082737513 1.7969409e-038
-0.096899435 0.066023 0.084289432 1.806414e-038
-0.094780676 0.0667146 0.083619051 1.7973766e-038
-0.092667565 0.067406163 0.082948342 1.7423839e-038
-0.090485975 0.067403339 0.08301843 1.7424205e-038
-0.088150971 0.066011801 0.084570669 1.7609323e-038
-0.085805342 0.064620219 0.086123116 1.7334904e-038
-0.083449081 0.063228533 0.087675877 1.7702267e-038
-0.081337087 0.063919775 0.087004714 1.7702978e-038
-0.079230756 0.064610921 0.08633332 1.7518586e-038
-0.077130072 0.065302022 0.085661672 1.6134932e-038
-0.074755788 0.063910089 0.087214634 1.6872141e-038
-0.072466709 0.063212372 0.088026181 1.7794466e-038
-0.07027097 0.06320896 0.088095993 1.7702637e-038
-0.068075508 0.063205495 0.088165708 1.7885949e-038
-0.065880284 0.063201979 0.088235356 1.7885952e-038
-0.06368532 0.06319841 0.088304929 1.7885955e-038
-0.061381269 0.062500432 0.089116551 1.7977072e-038
-0.059072066 0.061802402 0.089928269 1.8069623e-038
-0.056872483 0.061798654 0.089997783 1.834621e-038
-0.054673176 0.061794877 0.090067215 1.7885232e-038
-0.052353956 0.061096668 0.09087906 1.806962e-038
-0.050152496 0.061092786 0.090948433 1.7885949e-038
-0.047951303 0.06108886 0.091017745 1.7239863e-038
-0.045750406 0.061084896 0.091086999 1.6134235e-038
-0.043549761 0.061080873 0.09115617 1.5580341e-038
-0.041349418 0.06107682 0.091225289 1.6134955e-038
-0.039149351 0.061072722 0.091294341 1.7426415e-038
-0.036810413 0.060374204 0.092106432 1.7611885e-038
-0.03446636 0.059675578 0.092918664 1.68754e-038
-0.032406271 0.060365845 0.092244454 1.7607925e-038
