# .PCD v0.7 - Point Cloud Data file format
VERSION 0.7
FIELDS x y z rgb
SIZE 4 4 4 4
TYPE F F F F
COUNT 1 1 1 1
WIDTH 933
HEIGHT 1
VIEWPOINT 0 0 0 1 0 0 0
POINTS 933
DATA ascii
-0.0026596528 0.11690626 -0.14719909 1.7796282e-038
-0.00074231066 0.11609069 -0.14655419 1.7797002e-038
0.00093822135 0.11609168 -0.14649606 1.8073592e-038
0.0026185601 0.11609267 -0.14643794 1.8072507e-038
0.0082568731 0.10302869 -0.13698527 1.8072507e-038
-0.14947248 0.052800775 -0.10920494 1.1705574e-038
-0.14759816 0.060165845 -0.11432971 1.4012633e-038
-0.14572884 0.0618027 -0.11541925 1.4935298e-038
-0.14385244 0.061802909 -0.11535552 1.1423913e-038
-0.14198786 0.062621452 -0.11586861 1.1879847e-038
-0.14012881 0.063440017 -0.11638191 1.3168056e-038
-0.13830967 0.065895259 -0.11804952 1.390886e-038
-0.13646714 0.06671387 -0.11856329 1.4190849e-038
-0.13463014 0.067532487 -0.11907724 1.4654346e-038
-0.13277337 0.067532822 -0.11901402 1.4655067e-038
-0.13097285 0.069169834 -0.12010567 1.4563957e-038
-0.12915255 0.069988512 -0.12062012 1.4840547e-038
-0.12733781 0.070807211 -0.12113471 1.4840189e-038
-0.1255649 0.07244423 -0.12222719 1.4655798e-038
-0.12376405 0.073263004 -0.12274225 1.5114614e-038
-0.12192711 0.073263451 -0.12267954 1.4469965e-038
-0.12004588 0.072445571 -0.12203879 1.4100462e-038
-0.11820651 0.072446056 -0.12197595 1.3542245e-038
-0.11641715 0.073264912 -0.12249131 1.1419585e-038
-0.11458084 0.073265433 -0.12242852 1.2613452e-038
-0.11279999 0.074084282 -0.12294407 1.3535404e-038
-0.11102477 0.074903138 -0.1234598 1.3443207e-038
-0.10931591 0.076540366 -0.12455429 1.3811987e-038
-0.10755464 0.077359244 -0.12507045 1.4550991e-038
-0.10573285 0.077359855 -0.12500803 1.528891e-038
-0.10391127 0.077360488 -0.12494561 1.529106e-038
-0.1022331 0.078997731 -0.12604101 1.5475439e-038
-0.1004917 0.079816677 -0.12655775 1.501807e-038
-0.098755941 0.080635697 -0.12707472 1.437596e-038
-0.096946076 0.08063639 -0.12701261 1.4193368e-038
-0.095218904 0.081455387 -0.12752977 1.3826026e-038
-0.093327023 0.080637828 -0.12688833 1.3918951e-038
-0.091605768 0.081456855 -0.12740567 1.3458327e-038
-0.089980789 0.083094187 -0.12850273 1.3920025e-038
-0.088460281 0.085549861 -0.13017988 1.3734911e-038
-0.086668111 0.085550636 -0.13011825 1.3642715e-038
-0.084974982 0.086369723 -0.13063647 1.4653256e-038
-0.083186038 0.086370528 -0.13057491 1.4653611e-038
-0.081605755 0.088007972 -0.13167347 1.3735614e-038
-0.079822749 0.088008806 -0.13161208 1.382495e-038
-0.078149647 0.088827923 -0.13213091 1.5209336e-038
-0.076369874 0.088828787 -0.13206959 1.6034775e-038
-0.074820474 0.090466224 -0.1331691 1.4554926e-038
-0.073046662 0.090467103 -0.13310796 1.4002116e-038
-0.071514092 0.092104591 -0.13420805 1.4010083e-038
-0.069869451 0.092923775 -0.13472776 1.5303739e-038
-0.068230502 0.093742967 -0.13524766 1.4660191e-038
-0.066468641 0.093743898 -0.13518688 1.4660546e-038
-0.064707048 0.093744829 -0.13512607 1.4661625e-038
-0.062945746 0.093745783 -0.13506526 1.4661982e-038
-0.061321471 0.094565019 -0.13558562 1.4661982e-038
-0.059702903 0.0953843 -0.13610618 1.4570144e-038
-0.058090024 0.096203536 -0.13662688 1.4661622e-038
-0.056482852 0.097022794 -0.13714778 1.4846013e-038
-0.054586239 0.096205518 -0.13650581 1.5030404e-038
-0.052985046 0.097024798 -0.13702689 1.5030765e-038
-0.051236581 0.097025812 -0.13696642 1.4846373e-038
-0.049799785 0.09866333 -0.1380696 1.5122599e-038
-0.048215717 0.09948267 -0.13859127 1.5031122e-038
-0.046798438 0.1011202 -0.13969511 1.5030039e-038
-0.045228444 0.10193949 -0.14021721 1.5026799e-038
-0.043664191 0.10275878 -0.14073952 1.3349275e-038
-0.041767143 0.10194159 -0.14009741 1.0666237e-038
-0.040036928 0.10194264 -0.14003752 1.2319629e-038
-0.038306989 0.10194371 -0.13997762 1.2871722e-038
-0.036577333 0.10194477 -0.13991773 1.314723e-038
-0.035027981 0.10276408 -0.14044051 1.3793321e-038
-0.033667065 0.10440169 -0.14154625 1.1033224e-038
-0.032317221 0.10603925 -0.14265235 1.4264393e-038
-0.03041406 0.10522208 -0.14200999 9.946324e-039
-0.028887434 0.10604141 -0.14253354 1.5207959e-038
-0.027366495 0.10686077 -0.1430573 1.5951287e-038
-0.026047433 0.10849832 -0.14416443 1.5030051e-038
-0.023943726 0.10686295 -0.14293869 1.5214803e-038
-0.02223276 0.10686404 -0.1428794 1.5491029e-038
-0.020317687 0.10604687 -0.14223658 1.5306638e-038
-0.019018605 0.10768446 -0.14334443 1.5030051e-038
-0.017730549 0.109322 -0.14445263 1.4937856e-038
-0.016241096 0.11014131 -0.14497744 1.5306638e-038
-0.014542175 0.11014241 -0.14491855 1.5030413e-038
-0.013061345 0.11096176 -0.14544368 1.5122608e-038
-0.011586113 0.11178108 -0.14596897 1.5399194e-038
-0.010339707 0.11341857 -0.14707862 1.6413346e-038
-0.0086525083 0.11341965 -0.14702015 1.6412986e-038
-0.0071941633 0.114239 -0.14754605 1.7334942e-038
-0.0055100909 0.11424007 -0.1474877 1.7519333e-038
-0.0040602507 0.11505935 -0.14801389 1.8349455e-038
-0.0021426305 0.11424223 -0.14737101 1.8165064e-038
-0.00045921234 0.11424328 -0.14731269 1.8349455e-038
0.0012240415 0.11424436 -0.14725438 1.8625686e-038
0.0026623108 0.11506361 -0.14778097 1.8625681e-038
0.0080542844 0.10279151 -0.13894765 1.8349094e-038
-0.14941971 0.050001271 -0.10956955 1.1426436e-038
-0.14754064 0.057381257 -0.11467468 1.2996266e-038
-0.14565969 0.058201432 -0.1151851 1.2994469e-038
-0.14378425 0.059021626 -0.1156957 1.2437341e-038
-0.14190252 0.059021872 -0.11563175 1.1973479e-038
-0.14003539 0.059842102 -0.11614257 1.2524848e-038
-0.13819109 0.061482377 -0.11722848 1.3444642e-038
-0.13633779 0.062302656 -0.11773971 1.390994e-038
-0.13446729 0.062302992 -0.11767602 1.5202475e-038
-0.13262236 0.063123316 -0.11818748 1.4929134e-038
-0.13081113 0.064763665 -0.1192744 1.5023129e-038
-0.12901095 0.066403992 -0.12036165 1.4748348e-038
-0.12715454 0.06640441 -0.12029832 1.4748711e-038
-0.12540725 0.068864778 -0.12196165 1.4564321e-038
-0.12355929 0.06886524 -0.12189856 1.4379211e-038
-0.12171149 0.068865716 -0.12183545 1.4655798e-038
-0.11977486 0.067226246 -0.12062062 1.4931665e-038
-0.11792191 0.067226768 -0.12055727 1.4836584e-038
-0.11611906 0.068047322 -0.12106995 1.4925179e-038
-0.11432184 0.06886784 -0.12158276 1.2892555e-038
-0.11253022 0.06968838 -0.12209574 1.1969159e-038
-0.11080229 0.071328886 -0.12318519 1.2704201e-038
-0.10902464 0.072149508 -0.12369863 1.2981508e-038
-0.10725261 0.0729701 -0.1242122 1.1785122e-038
-0.10541997 0.072970748 -0.12414937 1.1507825e-038
-0.1036565 0.073791377 -0.12466319 1.123158e-038
-0.10189868 0.074612021 -0.12517716 1.4089999e-038
-0.1002209 0.076252669 -0.12626821 1.4926232e-038
-0.098477095 0.077073351 -0.12678264 1.5757446e-038
-0.096659102 0.077074088 -0.12672019 1.4930944e-038
-0.094923891 0.077894799 -0.12723485 1.5023863e-038
-0.093023807 0.077075623 -0.12659524 1.4840198e-038
-0.091294497 0.077896364 -0.12711006 1.5025309e-038
-0.089661561 0.079537109 -0.12820251 1.4104796e-038
-0.088039719 0.081177816 -0.12929529 1.4473579e-038
-0.086332865 0.081998594 -0.12981081 1.4288467e-038
-0.084631667 0.082819372 -0.13032652 1.3643095e-038
-0.082834609 0.082820244 -0.13026461 1.4744388e-038
-0.081142075 0.083641112 -0.13078062 1.4283055e-038
-0.079455234 0.084461942 -0.13129675 1.2166162e-038
-0.07788378 0.086102724 -0.13239114 1.4656883e-038
-0.076098599 0.086103648 -0.13232957 1.344718e-038
-0.074428841 0.08692456 -0.13284628 1.1784756e-038
-0.072646923 0.086925507 -0.13278478 1.3355294e-038
-0.070985824 0.087746397 -0.13330171 1.4094665e-038
-0.069453679 0.089387223 -0.13439736 1.4105538e-038
-0.067806698 0.090208128 -0.13491474 1.4659457e-038
-0.066294082 0.091849014 -0.13601106 1.4200647e-038
-0.064398423 0.091030098 -0.13537127 1.4385395e-038
-0.062765829 0.091851041 -0.1358891 1.4753818e-038
-0.060728487 0.090212174 -0.13467008 1.4477591e-038
-0.059238695 0.091853105 -0.13576712 1.4477231e-038
-0.057617795 0.092674069 -0.13628531 1.5030404e-038
-0.056147523 0.094315007 -0.13738301 1.4661622e-038
-0.054245431 0.093496114 -0.13674287 1.4477231e-038
-0.052638933 0.094317146 -0.13726155 1.4385038e-038
-0.050885078 0.094318233 -0.13720082 1.4938212e-038
-0.049443014 0.095959142 -0.13829941 1.4938209e-038
-0.048012089 0.097600043 -0.13939838 1.4846013e-038
-0.046592269 0.099241011 -0.14049774 1.5029684e-038
-0.04501966 0.10006201 -0.14101753 1.5305551e-038
-0.043286182 0.10006313 -0.14095744 1.5579975e-038
-0.04121441 0.098424464 -0.13973708 9.5833022e-039
-0.039648067 0.099245489 -0.14025705 1.2417955e-038
-0.038087428 0.10006651 -0.14077719 1.2320704e-038
-0.036532484 0.10088756 -0.14129753 1.1955527e-038
-0.034803115 0.1008887 -0.14123756 1.657467e-038
-0.033256844 0.10170974 -0.14175819 1.5008073e-038
-0.031530734 0.10171089 -0.14169829 1.076312e-038
-0.029804908 0.10171205 -0.14163841 9.7468071e-039
-0.028079364 0.10171321 -0.14157853 1.0951834e-038
-0.026741309 0.1033542 -0.14268066 1.031403e-038
-0.025414309 0.10499513 -0.14378311 1.4192366e-038
-0.023700364 0.10499629 -0.14372362 1.5949844e-038
-0.021583308 0.1033577 -0.14250164 1.5213719e-038
-0.020068895 0.10417874 -0.14302331 1.5030404e-038
-0.018560145 0.1049998 -0.14354518 1.4938212e-038
-0.017266858 0.10664076 -0.14464884 1.5214798e-038
-0.015347097 0.10582206 -0.14400795 1.4937856e-038
-0.013637399 0.10582323 -0.14394858 1.5030051e-038
-0.012145832 0.10664427 -0.14447106 1.5214804e-038
-0.010659881 0.1074653 -0.14499372 1.5214803e-038
-0.0091795577 0.10828632 -0.1455166 1.484602e-038
-0.0077048633 0.10910735 -0.14603968 1.5214803e-038
-0.0062357979 0.10992841 -0.14656296 1.5214798e-038
-0.0045409622 0.10992957 -0.14650415 1.5030407e-038
-0.002846363 0.10993072 -0.14644533 1.539919e-038
-0.0013886914 0.11075173 -0.14696899 1.5491385e-038
0.00030282419 0.11075287 -0.14691029 1.6044559e-038
0.0017520087 0.11157386 -0.14743426 1.6136399e-038
0.0034404425 0.11157499 -0.14737569 1.6874317e-038
0.0090890471 0.098458439 -0.13799147 1.6874317e-038
-0.14936569 0.046373539 -0.10937052 1.1146603e-038
-0.14747915 0.053768449 -0.11445589 1.2899394e-038
-0.14559658 0.055411965 -0.11553627 1.4283044e-038
-0.14370663 0.055412203 -0.11547204 1.3729154e-038
-0.14181678 0.055412468 -0.11540779 1.3082344e-038
-0.13992698 0.055412754 -0.1153435 1.2066749e-038
-0.13808928 0.057877932 -0.11699741 1.3352448e-038
-0.13624799 0.059521552 -0.11807904 1.3906693e-038
-0.13441767 0.061165154 -0.11916098 1.4554581e-038
-0.13254733 0.061165534 -0.11909723 1.4371995e-038
-0.13070534 0.061987557 -0.11960658 1.5387587e-038
-0.12883799 0.061987981 -0.11954287 1.4837659e-038
-0.12700441 0.062810041 -0.12005244 1.5207166e-038
-0.12517641 0.063632175 -0.1205622 1.4932385e-038
-0.12339312 0.0652759 -0.12164557 1.4287379e-038
-0.12153719 0.065276414 -0.12158214 1.4563248e-038
-0.1196814 0.065276951 -0.12151868 1.4655801e-038
-0.11782578 0.065277502 -0.12145519 1.4838029e-038
-0.11602031 0.066099688 -0.12196554 1.4836587e-038
-0.11427318 0.067743562 -0.12305004 1.4191214e-038
-0.11248166 0.068565793 -0.12356082 1.2717163e-038
-0.11063761 0.068566427 -0.12349762 1.2523773e-038
-0.10873286 0.067745477 -0.12286016 1.1601099e-038
-0.10695006 0.068567768 -0.12337117 1.3444287e-038
-0.1051729 0.069390073 -0.12388232 1.4643186e-038
-0.10340138 0.070212394 -0.12439364 1.4827932e-038
-0.10170725 0.071856394 -0.12547977 1.4460579e-038
-0.10002423 0.073500365 -0.12656622 1.3909566e-038
-0.09827508 0.07432279 -0.12707828 1.5109915e-038
-0.096371785 0.07350193 -0.12644066 1.4839843e-038
-0.094711147 0.075145975 -0.12752783 1.5025323e-038
-0.092720255 0.073503561 -0.12631501 1.4842374e-038
-0.090982899 0.074326053 -0.12682737 1.5394107e-038
-0.089251198 0.075148508 -0.12733987 1.521008e-038
-0.087618679 0.076792583 -0.12842789 1.447396e-038
-0.085804842 0.076793477 -0.12836538 1.3463774e-038
-0.084090188 0.077615976 -0.12887838 1.3924752e-038
-0.082279578 0.077616908 -0.12881595 1.4016226e-038
-0.080677934 0.079261079 -0.12990496 1.4841666e-038
-0.079087391 0.080905229 -0.13099433 1.4014783e-038
-0.077617735 0.083370999 -0.13265999 1.3829302e-038
-0.075714678 0.082550392 -0.13202214 1.4835526e-038
-0.074036874 0.08337298 -0.13253629 1.4090013e-038
-0.072128929 0.082552403 -0.13189825 1.3908111e-038
-0.070577711 0.084196597 -0.13298886 1.4186495e-038
-0.069037601 0.085840851 -0.13407987 1.3270347e-038
-0.067256525 0.085841894 -0.13401826 1.5115015e-038
-0.065733254 0.087486111 -0.1351098 1.4107726e-038
-0.063958153 0.087487176 -0.13504836 1.4292838e-038
-0.062317528 0.088309847 -0.13556367 1.4200291e-038
-0.060271949 0.086667791 -0.13434862 1.4200292e-038
-0.058774181 0.088312045 -0.13544096 1.4200644e-038
-0.057002936 0.088313162 -0.1353796 1.4385038e-038
-0.055667009 0.090779044 -0.13704965 1.4200647e-038
-0.053904474 0.090780184 -0.13698855 1.4200647e-038
-0.052142207 0.090781331 -0.13692744 1.4292842e-038
-0.050533377 0.091604047 -0.13744377 1.4569429e-038
-0.048774399 0.091605216 -0.13738275 1.4477233e-038
-0.047491357 0.094071105 -0.13905458 1.4477233e-038
-0.045902327 0.09489385 -0.13957155 1.512188e-038
-0.044646904 0.097359747 -0.14124429 1.512188e-038
-0.042741362 0.096539319 -0.14060602 1.5121158e-038
-0.041000072 0.096540526 -0.14054558 1.539595e-038
-0.039431129 0.09736333 -0.14106321 1.4002207e-038
-0.037693098 0.097364545 -0.14100286 1.2881812e-038
-0.035955355 0.097365752 -0.1409425 1.2138846e-038
-0.034217894 0.097366974 -0.14088213 1.2143163e-038
-0.032480724 0.097368203 -0.14082178 9.6528066e-039
-0.031114986 0.099012502 -0.14191853 1.1413888e-038
-0.029195482 0.0981922 -0.14127973 1.0861435e-038
-0.027652822 0.099014968 -0.1417982 1.3441838e-038
-0.025728481 0.098194689 -0.14115924 9.1100837e-039
-0.024388134 0.099839002 -0.14225681 9.5753821e-039
-0.022660702 0.099840246 -0.14219676 8.9310959e-039
-0.021135334 0.10066302 -0.14271583 8.9404524e-039
-0.019615605 0.10148585 -0.1432351 1.4105208e-038
-0.018308707 0.10313013 -0.14433385 1.5490662e-038
-0.017012861 0.10477448 -0.14543299 1.5675777e-038
-0.015302896 0.10477572 -0.14537355 1.4386118e-038
-0.013593201 0.10477696 -0.14531411 1.4571233e-038
-0.012101711 0.10559973 -0.14583433 1.4937857e-038
-0.010615835 0.10642248 -0.14635475 1.4476877e-038
-0.0091355881 0.10724522 -0.14687537 1.5030767e-038
-0.0076609701 0.10806797 -0.14739618 1.4753825e-038
-0.0057344842 0.10724769 -0.14675713 1.4846376e-038
-0.0035714004 0.10560592 -0.14553776 1.4754178e-038
-0.0016318834 0.10478563 -0.14489825 1.512296e-038
-0.00016079564 0.10560837 -0.1454192 1.4661625e-038
0.0010651338 0.10725258 -0.14652078 1.4661625e-038
0.0030067656 0.1064323 -0.14588121 1.5030404e-038
0.0051984428 0.10479052 -0.14466086 1.5030404e-038
-0.14931341 0.04438255 -0.11032443 1.0227551e-038
-0.14742103 0.050969094 -0.11482012 1.3265292e-038
-0.14552017 0.050969325 -0.11475554 1.3176337e-038
-0.14363785 0.052616145 -0.11583152 1.4283047e-038
-0.14175454 0.053439703 -0.11633746 1.3641638e-038
-0.13986206 0.053440008 -0.11627305 1.234622e-038
-0.13798711 0.05426367 -0.11677923 1.2803594e-038
-0.13613781 0.055910572 -0.11785622 1.3078379e-038
-0.13429952 0.057557505 -0.11893354 1.3721582e-038
-0.13244665 0.058381233 -0.11944038 1.4370554e-038
-0.13054271 0.057558332 -0.11880539 1.4832252e-038
-0.12872654 0.059205387 -0.1198834 1.4098293e-038
-0.12688762 0.060029138 -0.12039059 1.4836584e-038
-0.1250543 0.060852911 -0.12089793 1.4930944e-038
-0.12318738 0.060853425 -0.12083412 1.4747997e-038
-0.1213625 0.06167724 -0.12134169 1.4655444e-038
-0.11949859 0.061677806 -0.12127792 1.4840192e-038
-0.1176822 0.062501714 -0.12178575 1.4655798e-038
-0.11582132 0.062502325 -0.12172202 1.4471764e-038
-0.114119 0.064972773 -0.12337363 1.3734556e-038
-0.11226664 0.064973414 -0.12331013 1.3918225e-038
-0.11047271 0.065797418 -0.12381861 1.3271056e-038
-0.10850154 0.064151533 -0.12261099 1.3447527e-038
-0.10671069 0.064975515 -0.12311949 1.1880201e-038
-0.10485908 0.06497626 -0.1230559 1.2062429e-038
-0.10321502 0.067446865 -0.12470936 1.3721949e-038
-0.1014438 0.068270907 -0.12521845 1.4368395e-038
-0.099752791 0.069918275 -0.12630028 1.4738976e-038
-0.097995609 0.070742354 -0.12680981 1.3909566e-038
-0.096244067 0.071566448 -0.12731948 1.4369483e-038
-0.094415508 0.071567312 -0.12725653 1.6122637e-038
-0.092672579 0.07239145 -0.12776645 1.5299372e-038
-0.090847202 0.072392344 -0.12770355 1.4749458e-038
-0.089022048 0.072393253 -0.12764063 1.456651e-038
-0.087290704 0.073217481 -0.12815091 1.4291724e-038
-0.085565053 0.07404168 -0.12866133 1.4107335e-038
-0.083746068 0.074042648 -0.12859857 1.4015862e-038
-0.081927352 0.074043632 -0.12853576 1.4199897e-038
-0.080213308 0.074867889 -0.12904653 1.4107703e-038
-0.078612082 0.076515384 -0.13013111 1.373892e-038
-0.077021979 0.078162953 -0.13121609 1.3001355e-038
-0.075330429 0.078987241 -0.13172756 1.3554529e-038
-0.073529303 0.078988299 -0.13166526 1.4199898e-038
-0.07184644 0.079812616 -0.132177 1.4014065e-038
-0.070169263 0.080636933 -0.13268889 1.3269628e-038
-0.068621188 0.082284555 -0.1337752 1.2899736e-038
-0.066832021 0.082285672 -0.13371325 1.3541139e-038
-0.065300763 0.083933264 -0.13480012 1.4094333e-038
-0.063517563 0.083934411 -0.13473831 1.5385463e-038
-0.062003162 0.085582063 -0.13582572 1.4475777e-038
-0.059952032 0.083936721 -0.13461469 1.4291753e-038
-0.058449015 0.085584395 -0.13570248 1.4384315e-038
-0.056530014 0.084762365 -0.13506597 1.4015901e-038
-0.055186182 0.08723323 -0.13672915 1.4200291e-038
-0.053415544 0.087234437 -0.13666768 1.4200647e-038
-0.051795676 0.088058859 -0.13718137 1.3831861e-038
-0.050181523 0.088883355 -0.13769528 1.4292839e-038
-0.048261248 0.088061333 -0.13705863 1.3831861e-038
-0.046970308 0.090532258 -0.13872361 1.4108448e-038
-0.045534577 0.092179984 -0.13981362 1.4200644e-038
-0.04394592 0.093004435 -0.14032833 1.4108448e-038
-0.042029526 0.092182502 -0.13969177 1.4661622e-038
-0.040277425 0.092183776 -0.13963085 1.4568706e-038
-0.038697738 0.09300825 -0.14014584 1.466018e-038
-0.036948919 0.093009539 -0.14008503 1.5211193e-038
-0.035555452 0.094657227 -0.14117642 1.1798515e-038
-0.03381262 0.094658524 -0.14111577 1.0768519e-038
-0.032252986 0.09548302 -0.14163142 1.0024114e-038
-0.030327752 0.094661132 -0.1409945 1.0302865e-038
-0.02877409 0.095485628 -0.14151035 1.2889383e-038
-0.027035059 0.095486946 -0.14144981 9.2908723e-039
-0.025296312 0.095488265 -0.1413893 1.1512568e-038
-0.023754291 0.096312828 -0.14190558 1.0411617e-038
-0.022417042 0.097960502 -0.14299886 1.0683888e-038
-0.020687202 0.097961828 -0.14293863 9.1190787e-039
-0.018957615 0.097963154 -0.14287838 5.2475825e-039
-0.017228277 0.097964481 -0.14281817 7.0889784e-039
-0.016129024 0.10043538 -0.14448968 8.3786424e-039
-0.014620916 0.10125987 -0.14500709 1.0598177e-038
-0.013333781 0.10290752 -0.14610209 1.5206162e-038
-0.011403607 0.10208566 -0.14546497 1.4843862e-038
-0.0096890004 0.10208699 -0.14540525 1.5579987e-038
-0.0081980471 0.10291147 -0.14592327 1.5120806e-038
-0.0069388337 0.10455915 -0.14701928 1.5213002e-038
-0.0050042057 0.10373729 -0.146382 1.5029328e-038
-0.0030643684 0.10291541 -0.1457445 1.4660181e-038
-0.001119405 0.10209355 -0.14510688 1.4844573e-038
0.00012009172 0.10374121 -0.14620359 1.466018e-038
0.0018277594 0.1037425 -0.14614415 1.5028962e-038
0.0035352632 0.10374379 -0.14608471 1.4937123e-038
0.00720229 0.09715981 -0.14139764 1.4752732e-038
-0.14926097 0.042388324 -0.11128256 9.9509637e-039
-0.14736263 0.048163153 -0.11519288 1.2987265e-038
-0.14546297 0.048988324 -0.11569614 1.3267456e-038
-0.14356881 0.04981358 -0.11619958 1.4190133e-038
-0.14168017 0.050638814 -0.11670316 1.4193733e-038
-0.13978231 0.050639138 -0.11663855 1.3456169e-038
-0.13790199 0.051464424 -0.11714232 1.2067472e-038
-0.13602725 0.052289736 -0.11764625 1.289579e-038
-0.1342039 0.054764979 -0.11928758 1.325953e-038
-0.13232003 0.054765407 -0.11922332 1.4090011e-038
-0.13046466 0.05559079 -0.11972781 1.3356766e-038
-0.12858374 0.055591267 -0.11966358 1.4739702e-038
-0.1267368 0.056416698 -0.12016828 1.4190134e-038
-0.12485887 0.056417219 -0.1201041 1.4375606e-038
-0.12302036 0.057242747 -0.12060907 1.4654002e-038
-0.12122943 0.058893189 -0.12168341 1.4655081e-038
-0.11944952 0.060543638 -0.12275811 1.4379574e-038
-0.1175858 0.060544256 -0.12269427 1.4563965e-038
-0.11572226 0.060544904 -0.12263039 1.4472124e-038
-0.11385889 0.060545575 -0.12256651 1.4472124e-038
-0.11205127 0.061371237 -0.12307233 1.4012221e-038
-0.11024928 0.062196881 -0.1235783 1.4285208e-038
-0.10839188 0.062197618 -0.12351452 1.4924093e-038
-0.10659842 0.063023299 -0.12402072 1.3541511e-038
-0.10481061 0.063849002 -0.12452707 1.3536837e-038
-0.10289008 0.063024893 -0.12389323 1.2062784e-038
-0.1011081 0.063850634 -0.12439974 1.2248615e-038
-0.099331789 0.064676464 -0.12490643 1.4278349e-038
-0.097638443 0.066327155 -0.12598373 1.4370906e-038
-0.095716059 0.065503128 -0.1253497 1.4093238e-038
-0.094036758 0.067153864 -0.12642743 1.3539709e-038
-0.09219759 0.067154795 -0.12636402 1.4463115e-038
-0.09044686 0.067980647 -0.12687141 1.382532e-038
-0.088610888 0.067981616 -0.12680806 1.4289188e-038
-0.086868778 0.068807557 -0.12731574 1.4198439e-038
-0.08513236 0.069633476 -0.12782358 1.4474672e-038
-0.08340162 0.070459411 -0.12833157 1.4014783e-038
-0.081676558 0.071285352 -0.12883973 1.4383565e-038
-0.079957187 0.072111368 -0.12934811 1.4015506e-038
-0.078136303 0.072112441 -0.12928513 1.3093549e-038
-0.076535508 0.073763326 -0.13036531 1.290808e-038
-0.074607961 0.072939537 -0.12973078 1.373892e-038
-0.07302127 0.074590459 -0.13081142 1.3648168e-038
-0.071445711 0.076241426 -0.13189243 1.3924032e-038
-0.069881253 0.077892363 -0.13297381 1.4198456e-038
-0.068080977 0.077893525 -0.1329114 1.4381396e-038
-0.066280998 0.077894703 -0.13284896 1.4464179e-038
-0.064610168 0.078720793 -0.13335879 1.4094676e-038
-0.062945053 0.079546876 -0.13386878 1.381702e-038
-0.06128566 0.080373034 -0.13437901 1.4002136e-038
-0.059631951 0.081199139 -0.13488935 1.3828242e-038
-0.05798395 0.082025275 -0.13539988 1.4660536e-038
-0.0561992 0.082026526 -0.13533789 1.4200291e-038
-0.054559909 0.082852677 -0.13584872 1.4383962e-038
-0.052926321 0.083678871 -0.13635972 1.4200644e-038
-0.051147867 0.083680168 -0.1362979 1.4200644e-038
-0.049522962 0.084506333 -0.13680914 1.3924057e-038
-0.047903761 0.085332505 -0.13732061 1.3924057e-038
-0.046448957 0.086983547 -0.13840552 1.3739666e-038
-0.044843886 0.087809786 -0.13891746 1.4016252e-038
-0.043408595 0.089460835 -0.14000303 1.4200642e-038
-0.041650809 0.089462176 -0.13994183 1.4108448e-038
-0.040062826 0.090288386 -0.14045429 1.4016252e-038
-0.03830833 0.090289734 -0.1403932 1.4384315e-038
-0.036729027 0.091115996 -0.14090598 1.4566912e-038
-0.034800183 0.090292461 -0.14027098 1.4750581e-038
-0.033226848 0.091118731 -0.14078395 1.4377488e-038
-0.031476203 0.091120109 -0.14072296 1.2438138e-038
-0.029725825 0.091121495 -0.14066194 1.0495542e-038
-0.02816415 0.091947719 -0.14117526 8.553673e-039
-0.026417021 0.091949113 -0.14111434 8.1827338e-039
-0.024670176 0.091950506 -0.14105345 7.2636516e-039
-0.023120102 0.092776746 -0.14156717 1.4740495e-038
-0.021376502 0.092778154 -0.14150636 5.8846744e-039
-0.020036992 0.094429202 -0.14259513 8.8374513e-039
-0.018094715 0.093605787 -0.14195967 1.2072219e-038
-0.016354602 0.093607187 -0.14189897 1.1700556e-038
-0.014824735 0.094433419 -0.14241336 5.7031684e-039
-0.013513235 0.09608452 -0.14350317 5.7031684e-039
-0.012212774 0.097735561 -0.14459331 7.1808223e-039
-0.010923329 0.09938664 -0.14568387 4.7887778e-039
-0.008982542 0.098563164 -0.14504839 5.6206992e-039
-0.0072600902 0.098564558 -0.14498831 6.3589817e-039
-0.0057640448 0.09939082 -0.14550392 8.8486169e-039
-0.0042736139 0.100217 -0.14601971 1.0231551e-038
-0.0023256484 0.099393591 -0.14538403 1.0973075e-038
-0.0006067995 0.09939497 -0.1453241 1.2447841e-038
0.00087493425 0.10022114 -0.14584018 1.3367278e-038
0.0025906852 0.10022251 -0.14578037 1.4106283e-038
0.0045486153 0.099399082 -0.14514436 1.4107362e-038
-0.14920601 0.03873764 -0.11111348 9.8609247e-039
-0.14730005 0.044524107 -0.11500841 1.2156439e-038
-0.14539233 0.045350961 -0.11550923 1.3631185e-038
-0.14349949 0.047004431 -0.11657615 1.4555311e-038
-0.14159343 0.047004744 -0.11651128 1.4651112e-038
-0.13970228 0.047831673 -0.11701255 1.5020975e-038
-0.1377991 0.047832046 -0.1169477 1.3916791e-038
-0.13591628 0.048659075 -0.11744921 1.2715364e-038
-0.13406202 0.050312683 -0.11851726 1.31731e-038
-0.13221876 0.051966362 -0.1195857 1.3079829e-038
-0.13035806 0.052793417 -0.12008782 1.3170217e-038
-0.12847175 0.05279392 -0.12002337 1.372483e-038
-0.12661946 0.053621035 -0.12052571 1.4924093e-038
-0.12477276 0.05444818 -0.1210282 1.464895e-038
-0.12289231 0.054448761 -0.12096384 1.4652195e-038
-0.12105407 0.055275947 -0.12146655 1.4745113e-038
-0.1192214 0.056103211 -0.12196945 1.447141e-038
-0.11739434 0.056930453 -0.12247247 1.4656161e-038
-0.11547247 0.056104552 -0.12184092 1.4933104e-038
-0.11365119 0.056931842 -0.12234408 1.4288455e-038
-0.11183553 0.057759155 -0.12284739 1.4656513e-038
-0.11002548 0.058586493 -0.12335086 1.428738e-038
-0.10828216 0.060240466 -0.12442227 1.465651e-038
-0.10642229 0.060241271 -0.12435834 1.4285194e-038
-0.10462914 0.061068676 -0.12486229 1.4281239e-038
-0.10270314 0.060242947 -0.12423037 1.3633353e-038
-0.10084388 0.060243823 -0.12416634 1.3168777e-038
-0.099059515 0.061071292 -0.12467051 1.2060272e-038
-0.0972808 0.061898779 -0.12517485 1.4370948e-038
-0.095507741 0.062726289 -0.12567934 1.2805783e-038
-0.093740351 0.06355387 -0.12618405 1.3634429e-038
-0.091978624 0.064381406 -0.12668887 1.3910285e-038
-0.090134315 0.064382412 -0.1266252 1.3631539e-038
-0.088290215 0.06438344 -0.12656149 1.4186883e-038
-0.086540073 0.065211043 -0.12706664 1.4651112e-038
-0.084988452 0.067691833 -0.12870993 1.5115701e-038
-0.08315596 0.067692906 -0.12864655 1.4474672e-038
-0.081527419 0.069347128 -0.12972143 1.4567222e-038
-0.07970088 0.069348246 -0.12965821 1.4014773e-038
-0.077874593 0.069349378 -0.12959497 1.4567591e-038
-0.075938605 0.068523973 -0.12896226 1.4014785e-038
-0.074222855 0.069351703 -0.12946843 1.4383934e-038
-0.072512776 0.07017944 -0.12997475 1.4200264e-038
-0.07092654 0.071833789 -0.13105102 1.4292104e-038
-0.069351405 0.073488094 -0.13212758 1.4108081e-038
-0.067663871 0.074315861 -0.13263464 1.4199558e-038
-0.065855771 0.074317113 -0.13257186 1.4014087e-038
-0.064047955 0.074318379 -0.13250907 1.4565819e-038
-0.062372111 0.075146243 -0.13301648 1.2165478e-038
-0.060701955 0.07597407 -0.13352406 1.3267443e-038
-0.059174605 0.077628449 -0.13460216 1.3634418e-038
-0.05751856 0.078456283 -0.13511018 1.3819541e-038
-0.055725738 0.078457609 -0.13504782 1.5111014e-038
-0.054078404 0.079285532 -0.13555613 1.3830051e-038
-0.052288849 0.079286881 -0.13549384 1.4015887e-038
-0.050800845 0.08094129 -0.13657324 1.3832216e-038
-0.049170639 0.081769183 -0.13708207 1.4016251e-038
-0.047702178 0.083423644 -0.13816214 1.4108447e-038
-0.045927312 0.083425038 -0.13810031 1.4108448e-038
-0.044314213 0.084252954 -0.13860969 1.3831861e-038
-0.042870943 0.085907377 -0.13969058 1.4108448e-038
-0.040938228 0.085082285 -0.13905761 1.3739666e-038
-0.039000366 0.0842572 -0.13842444 1.4108448e-038
-0.037574194 0.085911646 -0.13950588 1.4108451e-038
-0.035984181 0.08673963 -0.14001603 1.4107017e-038
-0.034577504 0.088394076 -0.14109814 1.4474005e-038
-0.032640796 0.087569028 -0.14046496 4.4228847e-039
-0.03106514 0.088396981 -0.14097556 4.1452384e-039
-0.029123582 0.087571949 -0.14034221 7.7419428e-039
-0.027742356 0.089226395 -0.14142516 6.8232123e-039
-0.025798654 0.088401377 -0.14079171 6.2657225e-039
-0.024043741 0.088402852 -0.14073044 8.4697772e-039
-0.022092488 0.087577842 -0.14009671 6.1627173e-039
-0.020733945 0.089232296 -0.14118044 6.3496098e-039
-0.019184526 0.090060309 -0.14169194 5.5198492e-039
-0.01764074 0.090888262 -0.1422036 1.0774292e-038
-0.015687864 0.090063274 -0.14156979 6.9931842e-039
-0.013939906 0.090064764 -0.14150874 7.546002e-039
-0.012192216 0.090066247 -0.14144769 8.0141829e-039
-0.011091173 0.092547134 -0.14310598 7.7368785e-039
-0.0097883996 0.094201602 -0.14419167 6.2621086e-039
-0.0082757808 0.095029533 -0.14470442 9.032655e-039
-0.0065452312 0.095031008 -0.14464398 9.4003543e-039
-0.0048149349 0.095032476 -0.14458352 4.5082224e-039
-0.0028558937 0.094207488 -0.14394954 4.0504784e-039
-0.0011233478 0.094208956 -0.14388901 3.9554031e-039
0.0006090044 0.094210416 -0.14382853 5.5212883e-039
0.002104125 0.095038325 -0.1443419 5.0592312e-039
0.0038333507 0.09503977 -0.14428154 5.7035202e-039
0.0065320856 0.091735393 -0.14192493 6.3474476e-039
-0.14914933 0.034248855 -0.11039372 1.2076519e-038
-0.14723304 0.040046927 -0.11427313 1.1696895e-038
-0.14532128 0.041703701 -0.11533512 1.3353522e-038
-0.14342047 0.043360543 -0.11639748 1.3541159e-038
-0.14151846 0.044189122 -0.1168962 1.4096498e-038
-0.13962196 0.045017727 -0.1173951 1.4835864e-038
-0.13773102 0.045846362 -0.11789414 1.4468524e-038
-0.13584562 0.046675019 -0.11839334 1.4287373e-038
-0.13396575 0.047503754 -0.11889273 1.3268541e-038
-0.13209143 0.048332479 -0.11939222 1.3173463e-038
-0.13022268 0.049161222 -0.11989187 1.3721953e-038
-0.12832826 0.049161747 -0.11982711 1.3356042e-038
-0.12646794 0.04999055 -0.12032697 1.3632999e-038
-0.12453983 0.049162894 -0.1196975 1.4278368e-038
-0.12268522 0.049991749 -0.12019748 1.464895e-038
-0.1208362 0.050820678 -0.12069765 1.5112453e-038
-0.11903762 0.052477818 -0.12176297 1.4469965e-038
-0.11715495 0.052478511 -0.12169839 1.4932385e-038
-0.11537302 0.054135699 -0.12276421 1.4656517e-038
-0.11344313 0.053308211 -0.12213446 1.4380294e-038
-0.11161942 0.054137215 -0.12263529 1.4657237e-038
-0.10968444 0.053309783 -0.1220053 1.4932749e-038
-0.10805004 0.056623582 -0.12420305 1.4933454e-038
-0.10618205 0.056624427 -0.12413877 1.4473555e-038
-0.10444745 0.058281749 -0.12520601 1.4470674e-038
-0.10244668 0.056626193 -0.12401014 1.5020967e-038
-0.1005793 0.05662711 -0.12394577 1.4373439e-038
-0.098712146 0.05662806 -0.12388139 1.4920496e-038
-0.097000137 0.058285471 -0.12494929 1.3720876e-038
-0.09513884 0.058286458 -0.12488505 1.3082371e-038
-0.093443617 0.05994397 -0.1259535 1.5298312e-038
-0.091588214 0.059945002 -0.12588939 1.3818466e-038
-0.089821406 0.060774278 -0.1263918 1.3632629e-038
-0.088060275 0.061603568 -0.12689437 1.4462387e-038
-0.086304806 0.062432937 -0.12739713 1.3540439e-038
-0.084555015 0.063262269 -0.12790003 1.3542245e-038
-0.082711712 0.063263401 -0.1278362 1.5020978e-038
-0.081072487 0.064920992 -0.12890635 1.3645971e-038
-0.079339758 0.06575036 -0.12940978 1.4015113e-038
-0.077505372 0.06575156 -0.12934616 1.429208e-038
-0.075781316 0.066581026 -0.12984985 1.4291006e-038
-0.073950179 0.066582263 -0.12978631 1.3738566e-038
-0.072234794 0.067411721 -0.13029024 1.3923321e-038
-0.070406906 0.067412987 -0.13022676 1.4384302e-038
-0.06882111 0.069070667 -0.13129857 1.4568691e-038
-0.066999212 0.069071971 -0.13123526 1.4936401e-038
-0.065303907 0.069901533 -0.1317398 1.4937123e-038
-0.063356243 0.069074631 -0.13110858 1.5120435e-038
-0.061535198 0.069075972 -0.13104524 1.4934956e-038
-0.059714425 0.069077343 -0.13098188 1.4195183e-038
-0.058305454 0.071563333 -0.13262318 1.3637666e-038
-0.056633264 0.072392911 -0.13312839 1.4834413e-038
-0.055109367 0.074050725 -0.13420223 1.2990871e-038
-0.053451303 0.074880317 -0.13470788 1.4199188e-038
-0.051798932 0.075709917 -0.13521373 1.4108081e-038
-0.050302975 0.077367693 -0.13628845 1.3832216e-038
-0.048818145 0.079025537 -0.13736357 1.3924055e-038
-0.04734442 0.080683336 -0.13843903 1.3739664e-038
-0.045564171 0.080684796 -0.13837691 1.3463079e-038
-0.043945767 0.081514485 -0.1388839 1.3739668e-038
-0.042333022 0.082344115 -0.13939103 1.3831861e-038
-0.040559068 0.082345605 -0.13932908 1.4016252e-038
-0.038615748 0.081518948 -0.13869782 1.4016255e-038
-0.036839649 0.081520461 -0.13863577 1.4385038e-038
-0.035413943 0.083178282 -0.13971281 1.4199568e-038
-0.033643823 0.083179802 -0.13965096 1.4659839e-038
-0.031693555 0.082353175 -0.13901938 1.0142619e-038
-0.030104455 0.083182871 -0.13952725 2.0290493e-039
-0.028706908 0.084840693 -0.14060526 1.5695215e-039
-0.027131874 0.085670426 -0.14111362 1.9386712e-039
-0.025180018 0.084843785 -0.14048193 3.4130824e-039
-0.02341699 0.084845334 -0.14042027 4.516916e-039
-0.021457581 0.084018759 -0.13978834 5.6192923e-039
-0.019891756 0.084848449 -0.14029698 9.6765979e-039
-0.018533673 0.086506322 -0.14137633 8.106024e-039
-0.017186597 0.088164151 -0.14245605 6.5365403e-039
-0.015643153 0.088993877 -0.14296553 5.4265816e-039
-0.013474928 0.08733914 -0.14176279 4.8737623e-039
-0.011934672 0.08816883 -0.14227232 7.1840677e-039
-0.010615623 0.089826673 -0.14335303 6.354307e-039
-0.0095258206 0.092312574 -0.14500515 3.6827945e-039
-0.008010583 0.093142286 -0.14551559 9.4014389e-039
-0.0062773558 0.093143836 -0.14545497 4.6054585e-039
-0.0045443368 0.09314537 -0.14539434 4.5085797e-039
-0.0025825319 0.092318751 -0.14476226 3.9579227e-039
-0.00038385205 0.090664089 -0.14355853 3.9582828e-039
0.0018253706 0.089009419 -0.14235441 4.8766392e-039
0.0035710041 0.089010954 -0.14229338 5.336897e-039
0.005316399 0.089012496 -0.14223234 5.2432623e-039
-0.14909481 0.031406764 -0.11081391 1.2538592e-038
-0.14717363 0.037216403 -0.11467797 1.3365803e-038
-0.1452498 0.038046639 -0.1151739 1.2067118e-038
-0.14335057 0.040536668 -0.11679325 1.3722302e-038
-0.14143099 0.040537015 -0.11672789 1.4276199e-038
-0.13954142 0.042197235 -0.11778621 1.4464556e-038
-0.13764514 0.043027546 -0.11828288 1.4927699e-038
-0.13573399 0.043027978 -0.11821767 1.5113894e-038
-0.13382293 0.043028448 -0.11815244 1.4287733e-038
-0.13196373 0.04468875 -0.11921158 1.4192658e-038
-0.13005835 0.044689275 -0.11914645 1.2346582e-038
-0.12818441 0.045519724 -0.11964369 1.4000701e-038
-0.12631604 0.046350259 -0.12014111 1.4275844e-038
-0.12448999 0.048010666 -0.12120125 1.3817746e-038
-0.12259602 0.04801131 -0.12113634 1.3634075e-038
-0.12070221 0.048011981 -0.12107142 1.4097217e-038
-0.11885346 0.048842572 -0.12156934 1.5020967e-038
-0.11696268 0.048843298 -0.12150446 1.4746553e-038
-0.11512242 0.049673997 -0.12200262 1.4563602e-038
-0.11328777 0.050504666 -0.1225009 1.4564687e-038
-0.11145875 0.051335365 -0.12299933 1.4473212e-038
-0.10957682 0.051336203 -0.12293459 1.4657603e-038
-0.10775632 0.052166954 -0.12343325 1.4566128e-038
-0.10594144 0.052997723 -0.12393207 1.4472846e-038
-0.10413222 0.053828575 -0.12443108 1.437993e-038
-0.10225924 0.053829506 -0.12436652 1.4287725e-038
-0.10045858 0.054660358 -0.12486571 1.43792e-038
-0.098663568 0.055491235 -0.12536508 1.3915692e-038
-0.096874215 0.056322128 -0.1258646 1.3731301e-038
-0.095090508 0.057153035 -0.12636429 1.4187969e-038
-0.093229495 0.057154097 -0.12629998 1.308199e-038
-0.091454409 0.057985105 -0.12679993 1.4473968e-038
-0.089508176 0.057156291 -0.12617126 1.3551655e-038
-0.087830126 0.058817219 -0.12723581 1.4278372e-038
-0.085975498 0.05881837 -0.12717158 1.3909221e-038
-0.084217675 0.059649415 -0.12767197 1.390994e-038
-0.082266994 0.058820743 -0.12704305 1.4002846e-038
-0.080719084 0.061311603 -0.12867332 1.3911005e-038
-0.078873619 0.061312847 -0.12860928 1.5389371e-038
-0.077135824 0.062143955 -0.12911025 1.3828575e-038
-0.075293608 0.062145233 -0.12904628 1.4750552e-038
-0.073564485 0.06297639 -0.12954752 1.4658737e-038
-0.07172551 0.062977701 -0.12948361 1.4658737e-038
-0.070005089 0.063808888 -0.12998506 1.4751996e-038
-0.06816937 0.063810244 -0.12992123 1.4751996e-038
-0.066704996 0.066301204 -0.13155416 1.3922957e-038
-0.064877987 0.066302583 -0.13149056 1.4106272e-038
-0.062922165 0.065474145 -0.13086118 1.4014432e-038
-0.060961183 0.06464567 -0.13023156 1.3368338e-038
-0.05926415 0.065476999 -0.13073374 1.3828951e-038
-0.057710037 0.067138135 -0.13180213 1.4290297e-038
-0.056167051 0.068799317 -0.1328709 1.484456e-038
-0.054635197 0.070460454 -0.13394003 1.3923337e-038
-0.053114451 0.072121605 -0.1350095 1.392406e-038
-0.051456776 0.072952986 -0.13551296 1.3924057e-038
-0.049654033 0.072954491 -0.13545001 1.3831861e-038
-0.048158526 0.074615657 -0.13652033 1.3739666e-038
-0.046674147 0.076276824 -0.13759102 1.364675e-038
-0.044883091 0.076278359 -0.13752843 1.3462002e-038
-0.043415532 0.0779396 -0.13859969 1.392406e-038
-0.041630477 0.077941149 -0.1385373 1.3739668e-038
-0.039678726 0.077112898 -0.1379078 1.3924057e-038
-0.037552115 0.075454816 -0.13671088 1.3924057e-038
-0.03575984 0.075456411 -0.13664818 1.1250386e-038
-0.03431806 0.077117659 -0.1377203 5.9948809e-039
-0.032887392 0.078778878 -0.13879274 1.8513955e-040
-0.031106763 0.078780487 -0.13873041 3.7096574e-040
-0.02932642 0.078782097 -0.13866809 7.9320808e-039
-0.027918223 0.080443352 -0.13974133 5.1680238e-039
-0.026521094 0.082104564 -0.14081492 7.8398992e-039
-0.024561079 0.081276394 -0.14018504 3.0461062e-039
-0.023178007 0.082937606 -0.1412591 1.2047313e-039
-0.021215849 0.082109451 -0.14062911 5.7208514e-039
-0.020046238 0.084600478 -0.14227195 2.3081782e-039
-0.018286744 0.084602118 -0.14221029 2.40182e-039
-0.016937137 0.086263306 -0.14328551 3.1408157e-039
-0.015183553 0.086264938 -0.14322408 3.6911126e-039
-0.01343021 0.086266577 -0.14316264 4.4279406e-039
-0.01189003 0.08709798 -0.14366995 4.6119661e-039
-0.010571129 0.088759191 -0.14474626 4.3339401e-039
-0.0090449322 0.089590594 -0.14525402 4.1455776e-039
-0.0075243651 0.090421975 -0.145762 6.1749576e-039
-0.0057857344 0.090423591 -0.1457011 4.1462838e-039
-0.0045001172 0.09208478 -0.14677857 4.1452034e-039
-0.0023091445 0.090426818 -0.14557928 4.2352354e-039
-0.0001076269 0.088768914 -0.14437966 4.8798832e-039
0.0021044335 0.087110981 -0.14317966 4.9720788e-039
0.0040899133 0.086282849 -0.14254886 5.0649849e-039
0.0060805767 0.085454702 -0.14191791 5.2490216e-039
-0.14904289 0.030221269 -0.11236107 1.3091768e-038
-0.14711396 0.034379385 -0.11509137 1.3462346e-038
-0.14518481 0.035211246 -0.11558491 1.2073265e-038
-0.14327079 0.036874745 -0.11663812 1.2432652e-038
-0.14136775 0.038538221 -0.11769163 1.3446087e-038
-0.13949071 0.041033331 -0.11930519 1.4094333e-038
-0.13757677 0.04103376 -0.1192399 1.510813e-038
-0.13564247 0.04020261 -0.11861467 1.4375608e-038
-0.13370281 0.039371546 -0.11798926 1.5113895e-038
-0.13178377 0.039372064 -0.11792369 1.4657237e-038
-0.12992214 0.041035771 -0.1189784 1.3918951e-038
-0.12804015 0.041867912 -0.11947317 1.3453286e-038
-0.12619784 0.04353163 -0.12052841 1.3634798e-038
-0.12429291 0.043532275 -0.12046315 1.3357488e-038
-0.12246718 0.045196097 -0.12151893 1.3634795e-038
-0.12052571 0.044365197 -0.12089313 1.4189768e-038
-0.11871392 0.04602908 -0.12194931 1.465183e-038
-0.11677004 0.045198288 -0.12132338 1.4469245e-038
-0.11497217 0.046862181 -0.12237991 1.4655078e-038
-0.11307905 0.046863001 -0.12231482 1.4749078e-038
-0.1113537 0.049358524 -0.12393298 1.5210421e-038
-0.10946912 0.0493594 -0.12386809 1.4474299e-038
-0.10764602 0.050191849 -0.12436444 1.4382103e-038
-0.1057005 0.049361236 -0.12373824 1.4289909e-038
-0.10388323 0.050193734 -0.12423473 1.4750167e-038
-0.10200214 0.050194718 -0.12416983 1.4103722e-038
-0.10019345 0.051027264 -0.12466654 1.3918596e-038
-0.0983155 0.051028308 -0.12460167 1.4377035e-038
-0.096592993 0.052692484 -0.12566046 1.4836218e-038
-0.094720937 0.052693568 -0.12559573 1.4009354e-038
-0.092932142 0.053526215 -0.126093 1.4009728e-038
-0.090977497 0.052695822 -0.1254662 1.4381773e-038
-0.089194611 0.05352851 -0.12596358 1.4843128e-038
-0.087508596 0.055192757 -0.12702344 1.5483091e-038
-0.085739762 0.056025479 -0.12752128 1.5018125e-038
-0.083783373 0.055195194 -0.12689427 1.3724487e-038
-0.081821799 0.054364927 -0.12626708 1.390994e-038
-0.080059163 0.055197731 -0.12676501 1.4279076e-038
-0.078407004 0.056862105 -0.12782593 1.4096471e-038
-0.076658458 0.057694938 -0.1283243 1.4005718e-038
-0.074915618 0.058527794 -0.12882283 1.3733496e-038
-0.07317847 0.059360661 -0.12932155 1.4197019e-038
-0.071331397 0.059362035 -0.12925728 1.4105906e-038
-0.069484614 0.05936344 -0.12919298 1.336977e-038
-0.067638092 0.059364855 -0.12912869 1.3277928e-038
-0.066039369 0.061029349 -0.13019127 1.3002061e-038
-0.064325295 0.061862301 -0.13069065 1.3553453e-038
-0.062616937 0.06269528 -0.13119021 1.4014076e-038
-0.060782384 0.062696762 -0.13112622 1.4659091e-038
-0.059082739 0.063529745 -0.13162602 1.5488852e-038
-0.057526078 0.065194301 -0.13268997 1.4936044e-038
-0.055840552 0.066027321 -0.13319021 1.5304829e-038
-0.054303449 0.067691885 -0.13425478 1.5489589e-038
-0.052632034 0.068524927 -0.13475549 1.5489952e-038
-0.051114462 0.070189461 -0.13582067 1.51226e-038
-0.049155477 0.069359556 -0.13519308 1.4846016e-038
-0.047652021 0.07102409 -0.13625872 1.4291763e-038
-0.04584717 0.071025699 -0.13619557 1.3922981e-038
-0.044360533 0.072690308 -0.13726179 1.3922981e-038
-0.042400036 0.071860462 -0.13663408 1.3738592e-038
-0.040927503 0.073525026 -0.13770074 1.3463081e-038
-0.038964894 0.072695211 -0.13707294 1.3647473e-038
-0.03750648 0.074359789 -0.13814002 1.4016255e-038
-0.035541717 0.073529989 -0.1375121 1.3463079e-038
-0.033922207 0.074363127 -0.13801445 1.2725162e-038
-0.032130502 0.074364796 -0.13795166 7.1008726e-039
-0.030700276 0.076029435 -0.13901976 2.8616757e-039
-0.028914543 0.076031119 -0.13895716 5.8126603e-039
-0.027501091 0.077695727 -0.14002576 5.9062951e-039
-0.025910012 0.078528859 -0.14052907 5.351692e-039
-0.024133231 0.078530565 -0.14046673 6.8272102e-039
-0.022550831 0.079363756 -0.14097038 3.693649e-039
-0.020974107 0.080196895 -0.14147416 9.5037435e-039
-0.019602487 0.081861481 -0.1425442 3.1408143e-039
-0.018039791 0.082694605 -0.14304847 2.1248617e-039
-0.016482769 0.083527803 -0.14355293 5.8126869e-039
-0.014931362 0.084360927 -0.14405759 4.8889215e-039
-0.013175342 0.084362641 -0.14399596 6.4973165e-040
-0.011845523 0.08602719 -0.14506747 2.5815169e-039
-0.010095386 0.086028889 -0.14500606 2.488245e-039
-0.0085638734 0.086862057 -0.14551143 2.4871562e-039
-0.0068169213 0.086863756 -0.14545013 4.055191e-039
-0.0052939723 0.08769685 -0.1459558 3.1339424e-039
-0.0033237175 0.086867139 -0.14532757 2.6733215e-039
-0.0013483111 0.086037382 -0.14469916 2.3967347e-039
0.00086413091 0.084376261 -0.14350337 2.7630088e-039
0.0028525845 0.083546542 -0.14287452 1.7495674e-039
0.0048462343 0.082716785 -0.14224549 2.7629976e-039
-0.14898948 0.028202664 -0.11335102 1.3460193e-038
-0.14705403 0.031535801 -0.11551324 1.3186495e-038
-0.14511956 0.032369372 -0.11600445 1.3554909e-038
-0.14320031 0.034036145 -0.11705312 1.2069654e-038
-0.14126721 0.034036528 -0.11698725 1.2617768e-038
-0.13937955 0.036536627 -0.11859393 1.3723748e-038
-0.13749048 0.038203504 -0.11964347 1.4186528e-038
-0.13559182 0.039037187 -0.12013566 1.4650036e-038
-0.13362888 0.03737127 -0.11895458 1.5481599e-038
-0.13168114 0.036538605 -0.11833099 1.4654002e-038
-0.12978554 0.037372395 -0.11882314 1.5392643e-038
-0.12789552 0.038206216 -0.11931543 1.4654712e-038
-0.12604523 0.039873317 -0.12036608 1.2717882e-038
-0.12420597 0.041540407 -0.12141705 1.2809355e-038
-0.12237774 0.043207526 -0.12246833 1.3914982e-038
-0.12043352 0.04237505 -0.1218446 1.4744743e-038
-0.11852909 0.042375818 -0.1217792 1.4191569e-038
-0.1166248 0.042376615 -0.12171375 1.4559997e-038
-0.11482167 0.044043887 -0.12276577 1.6127325e-038
-0.11297639 0.044877946 -0.12325928 1.493131e-038
-0.11119267 0.046545237 -0.12431186 1.428738e-038
-0.10930268 0.046546146 -0.12424675 1.3921501e-038
-0.10747426 0.047380336 -0.12474074 1.383004e-038
-0.10552329 0.046548057 -0.12411643 1.3644928e-038
-0.1037007 0.047382299 -0.12461056 1.4105196e-038
-0.10188375 0.048216518 -0.1251048 1.4473978e-038
-0.099927962 0.047384392 -0.12448023 1.3646737e-038
-0.098191835 0.049051847 -0.12553418 1.3832569e-038
-0.096311443 0.049052954 -0.12546915 1.474949e-038
-0.094511673 0.049887288 -0.12596384 1.530231e-038
-0.092551336 0.049055263 -0.12533896 1.2997059e-038
-0.090585783 0.048223268 -0.12471389 1.3458753e-038
-0.088792145 0.049057666 -0.12520869 1.3735338e-038
-0.087004185 0.049892094 -0.12570365 1.5118274e-038
-0.085221894 0.050726533 -0.12619877 1.4841331e-038
-0.083445303 0.051561046 -0.1266941 1.5395581e-038
-0.081574976 0.051562361 -0.12662913 1.4012273e-038
-0.079909131 0.053230047 -0.12768517 1.2164753e-038
-0.07793992 0.052398231 -0.12705973 1.2904436e-038
-0.076288186 0.054065954 -0.12811621 1.318174e-038
-0.074427053 0.054067358 -0.12805142 1.3182855e-038
-0.07279215 0.055735152 -0.12910846 1.3458377e-038
-0.07093697 0.055736598 -0.12904383 1.4197027e-038
-0.069082074 0.055738054 -0.12897921 1.484384e-038
-0.06722746 0.055739541 -0.12891452 1.5028231e-038
-0.065620765 0.057407357 -0.1299724 1.4198113e-038
-0.06389866 0.058242027 -0.13046926 1.364351e-038
-0.062311534 0.059909914 -0.13152778 1.4841331e-038
-0.060471591 0.059911463 -0.13146354 1.4107362e-038
-0.058766633 0.060746182 -0.13196093 1.4385034e-038
-0.056929987 0.060747769 -0.13189673 1.4477231e-038
-0.055373792 0.062415648 -0.13295624 1.4566907e-038
-0.053828735 0.064083591 -0.13401611 1.484242e-038
-0.05229478 0.065751493 -0.13507633 1.4935695e-038
-0.050475556 0.065753132 -0.13501266 1.4752024e-038
-0.04865662 0.065754786 -0.134949 1.5489589e-038
-0.046991609 0.066589631 -0.13544765 1.5766539e-038
-0.045332272 0.067424431 -0.13594648 1.5213722e-038
-0.043519631 0.067426115 -0.13588297 1.4291766e-038
-0.041707277 0.067427814 -0.13581945 1.3646397e-038
-0.040059656 0.068262652 -0.13631864 1.3555277e-038
-0.038417749 0.069097497 -0.13681799 1.3462002e-038
-0.03678152 0.069932334 -0.13731752 1.392406e-038
-0.035151016 0.070767239 -0.13781729 1.3647117e-038
-0.033350948 0.070768982 -0.13775413 1.3647469e-038
-0.032084994 0.07327006 -0.13938047 1.3739664e-038
-0.030654922 0.074938066 -0.14044416 1.2080876e-038
-0.029052585 0.075772926 -0.14094481 8.0246337e-039
-0.027269861 0.075774685 -0.14088222 5.167658e-039
-0.02548741 0.075776458 -0.14081962 3.1386591e-039
-0.023513779 0.074945137 -0.1401934 3.3248651e-039
-0.021923339 0.075780012 -0.14069445 6.5515748e-040
-0.020338591 0.076614887 -0.1411957 3.5117815e-039
-0.019158613 0.079115972 -0.14282502 3.1404598e-039
-0.017388327 0.079117753 -0.14276284 5.9048826e-039
-0.015823266 0.079952627 -0.14326474 2.7684319e-039
-0.014056211 0.079954408 -0.14320266 9.3150419e-039
-0.012499727 0.080789268 -0.14370489 5.1644294e-039
-0.010735877 0.080791056 -0.1436429 8.7636505e-039
-0.0094037801 0.082459018 -0.14470994 7.5571956e-039
-0.0076457965 0.082460798 -0.14464816 5.8980288e-039
-0.0058880514 0.082462579 -0.14458638 1.0878741e-038
-0.00368287 0.080798186 -0.14339505 6.1767667e-039
-0.001693707 0.07996691 -0.14276822 1.6602556e-039
0.0005298676 0.078302577 -0.14157628 1.6602556e-039
0.0020682584 0.0791374 -0.14207914 1.5669824e-039
0.0033664305 0.080805272 -0.14314738 1.9350446e-039
0.0053655123 0.079973981 -0.14252023 1.935402e-039
-0.14893436 0.025345922 -0.11379027 1.3830051e-038
-0.14699383 0.028685741 -0.11594367 1.392154e-038
-0.14505404 0.029520944 -0.11643248 1.3831141e-038
-0.1431198 0.030356165 -0.11692145 1.4843848e-038
-0.14119107 0.031191479 -0.11741057 1.4095069e-038
-0.13928305 0.03286165 -0.11845518 1.3077301e-038
-0.13738601 0.034531903 -0.11950014 1.4092173e-038
-0.13545868 0.034532402 -0.11943431 1.3819555e-038
-0.13350812 0.033698011 -0.11881277 1.4558562e-038
-0.13160436 0.034533497 -0.11930253 1.4561442e-038
-0.12970616 0.03536896 -0.11979239 1.4655435e-038
-0.12778202 0.035369594 -0.11972649 1.4656153e-038
-0.12589224 0.036205128 -0.12021656 1.4748706e-038
-0.12404501 0.037875555 -0.12126288 1.401042e-038
-0.1222088 0.039546058 -0.12230957 1.3640559e-038
-0.12025643 0.038711965 -0.12168768 1.3271056e-038
-0.11834387 0.038712755 -0.12162197 1.3362529e-038
-0.11643148 0.038713586 -0.12155621 1.317742e-038
-0.11467096 0.041219033 -0.12316012 1.2347659e-038
-0.1127138 0.04038506 -0.1225379 1.1794131e-038
-0.11091937 0.042055693 -0.12358574 1.1701223e-038
-0.10901857 0.042056646 -0.1235202 1.5946561e-038
-0.10724085 0.04372739 -0.12456857 1.466089e-038
-0.10534585 0.043728396 -0.12450318 1.4015885e-038
-0.10351794 0.044564288 -0.12499486 1.4290677e-038
-0.10162608 0.044565361 -0.12492947 1.4199202e-038
-0.099662118 0.043731622 -0.12430673 1.4844205e-038
-0.097842999 0.044567596 -0.12479862 1.4475423e-038
