# .PCD v0.7 - Point Cloud Data file format
VERSION 0.7
FIELDS x y z rgb
SIZE 4 4 4 4
TYPE F F F F
COUNT 1 1 1 1
WIDTH 947
HEIGHT 1
VIEWPOINT 0 0 0 1 0 0 0
POINTS 947
DATA ascii
0.041397735 0.052349608 0.056290548 1.1601476e-038
0.043301743 0.05306533 0.055644426 1.6117941e-038
0.044463292 0.055938996 0.052855618 1.8241647e-038
0.046099763 0.057374135 0.051494658 1.7228216e-038
0.047976315 0.058089979 0.050847758 1.6767958e-038
0.050101038 0.058086559 0.050915148 1.630698e-038
0.051712871 0.059521779 0.049553558 1.3818078e-038
0.053313758 0.060957097 0.048191622 1.603292e-038
0.055165581 0.061673097 0.047544092 1.889461e-038
0.057276368 0.061669827 0.04761121 1.5944729e-038
0.059119895 0.062385909 0.046963513 6.5440358e-039
0.060688116 0.063821428 0.045600735 1.530301e-038
0.062245473 0.065256953 0.044237696 1.8255086e-038
0.064067274 0.0659732 0.043589476 1.75186e-038
0.06560567 0.067408882 0.042225908 1.2725868e-038
0.067133307 0.068844587 0.040862102 1.1712071e-038
0.068650119 0.070280388 0.03949796 1.8073215e-038
0.070156172 0.071716219 0.038133584 1.8348727e-038
0.071940139 0.072432756 0.037484463 7.1992073e-039
0.073427394 0.073868759 0.036119588 4.1733513e-039
0.075197935 0.074585423 0.035470176 2.3409756e-039
0.076666437 0.076021507 0.034104872 1.4197353e-039
0.078723058 0.076018929 0.034171049 9.6020334e-040
0.080779798 0.076016411 0.034237314 5.9213828e-040
0.082226917 0.077452749 0.032871526 5.9213828e-040
0.083663382 0.078889117 0.031505499 6.8505698e-040
0.08477892 0.081044994 0.029422954 5.0138599e-040
0.08650431 0.081762135 0.028772643 7.7797288e-040
0.08759319 0.083918169 0.026689403 9.6236554e-040
0.089302763 0.084635474 0.026038764 1.0545612e-039
0.090686068 0.086072244 0.024671469 7.7797428e-040
0.092058778 0.08750914 0.023303876 1.6988516e-039
0.093094595 0.089665473 0.021219343 1.6077336e-039
0.095101632 0.089663699 0.021284895 1.6077209e-039
0.096445404 0.091100849 0.019916661 2.9863226e-039
0.098113135 0.091818638 0.019265248 5.0066993e-039
0.099438518 0.093255967 0.017896619 4.6408006e-039
0.10075348 0.09469334 0.016527802 1.6077209e-039
0.10240053 0.09541139 0.015876029 1.3336592e-039
0.10369723 0.096848994 0.014506794 9.6704027e-040
0.10498349 0.098286659 0.01313738 1.703162e-039
0.10625929 0.099724442 0.011767689 1.7953576e-039
0.10752472 0.10116229 0.010397808 2.0712242e-039
0.1091358 0.10188081 0.009745433 2.5322024e-039
0.11074193 0.10259944 0.0090930294 2.7165936e-039
0.11270448 0.10259873 0.0091584772 2.7165936e-039
0.11466753 0.10259813 0.0092240805 2.1630639e-039
0.1166311 0.10259764 0.0092898384 1.6106132e-039
0.11785597 0.10403612 0.0079193311 1.8879218e-039
0.11907064 0.10547468 0.0065486692 7.8193856e-040
0.12102492 0.1054745 0.0066145197 1.427308e-039
0.12335743 0.10475499 0.0073989863 5.9826756e-040
0.12569594 0.10403559 0.0081837866 6.9046319e-040
0.12727435 0.10475516 0.0075316774 5.975473e-040
0.12884793 0.10547484 0.0068795485 4.1243577e-040
0.13080528 0.10547522 0.0069462368 1.6095384e-039
0.1323721 0.10619514 0.0062941844 1.1485603e-039
0.13472199 0.10547633 0.0070801377 1.4251444e-039
0.13707809 0.10475764 0.0078664748 6.8757932e-040
0.13983966 0.10331966 0.009372361 1.0556416e-039
0.14140676 0.10404007 0.0087209735 7.7977775e-040
0.14377871 0.10332177 0.009508336 5.9358723e-040
0.14941664 0.09684819 0.016051952 1.882168e-039
0.0034019332 0.014354877 0.089292504 5.0916824e-039
0.0044062529 0.019396922 0.084394448 6.664064e-039
0.0064907605 0.020113908 0.083756074 3.807803e-039
0.0085695488 0.020830901 0.083117522 3.1638741e-039
0.010642649 0.021547886 0.082478769 2.3341148e-039
0.012710002 0.022264916 0.08183977 2.7932909e-039
0.01437732 0.024423625 0.079779692 3.0673555e-039
0.015428564 0.028744986 0.075587347 8.3062163e-039
0.016852258 0.031624671 0.072815269 1.2077566e-038
0.018664621 0.033062644 0.071463957 1.806448e-038
0.020465948 0.034500606 0.070112355 1.7230754e-038
0.022045497 0.036659501 0.068049453 1.7137121e-038
0.023608649 0.038818438 0.065986045 1.6764025e-038
0.025587456 0.039535586 0.065344311 1.4919758e-038
0.027123129 0.041694533 0.063280076 1.5108109e-038
0.029085271 0.042411771 0.062637798 1.6861973e-038
0.030593505 0.044570785 0.06057274 1.7605653e-038
0.032538991 0.04528803 0.05993 1.7513116e-038
0.034019779 0.047447152 0.057864048 1.7331606e-038
0.036180925 0.047443535 0.057932414 1.7147213e-038
0.038106915 0.048160862 0.057289124 1.7600613e-038
0.04026496 0.048157282 0.05735743 1.538506e-038
0.041942108 0.049595624 0.056002028 1.0862471e-038
0.043608371 0.051033966 0.054646354 1.6118671e-038
0.045017961 0.053193331 0.052578319 1.6582491e-038
0.046659648 0.054631762 0.051221929 1.6766518e-038
0.048541427 0.055349331 0.050577369 1.7043105e-038
0.050925277 0.054624945 0.051357288 1.5844929e-038
0.052544929 0.05606354 0.050000265 1.0313603e-038
0.05389455 0.058223102 0.047930546 9.9473245e-039
0.055751618 0.058940835 0.047285367 1.7236174e-038
0.057603158 0.059658557 0.046640079 9.4917554e-039
0.059449259 0.060376331 0.045994684 1.5491712e-038
0.06101995 0.061815135 0.04463638 1.7336003e-038
0.062852398 0.062533051 0.043990601 1.7059063e-038
0.064679407 0.063250981 0.043344751 1.7519319e-038
0.065944962 0.065410972 0.041272648 1.7612237e-038
0.067475058 0.066849999 0.039913271 1.733565e-038
0.06842754 0.069731116 0.037127137 1.0880159e-038
0.069930688 0.071170285 0.035767015 7.8380719e-039
0.071711756 0.071888536 0.035119943 3.9900362e-039
0.073487543 0.072606817 0.034472827 1.969312e-039
0.07525792 0.07332515 0.033825591 1.0509556e-039
0.077023007 0.07404355 0.033178266 1.9743497e-039
0.079082273 0.074040994 0.033244573 1.2375077e-039
0.080839343 0.074759513 0.032597125 7.7580928e-040
0.082286201 0.076199174 0.031235659 5.9213828e-040
0.084030025 0.076917827 0.030587949 6.8433391e-040
0.08514794 0.079078659 0.02851196 6.8505698e-040
0.086562842 0.080518492 0.027149731 6.8505698e-040
0.087967075 0.081958458 0.025787218 8.7016991e-040
0.089679129 0.082677409 0.025138823 6.8577865e-040
0.091385916 0.083396435 0.024490351 8.6837345e-040
0.092763774 0.084836587 0.023127293 9.6092361e-040
0.09413103 0.086276859 0.021763934 1.1460323e-039
0.095816925 0.086996138 0.021115065 8.2302547e-039
0.097165801 0.088436536 0.019751349 1.5501742e-038
0.098504148 0.089877062 0.018387342 1.7060072e-038
0.09915749 0.092759788 0.015593193 1.5956265e-038
0.10080939 0.09347941 0.014943623 4.9166673e-039
0.10279883 0.093478039 0.015009123 1.7928325e-039
0.10444327 0.094197825 0.014359528 7.8192875e-040
0.10573463 0.095638812 0.012994527 1.1499882e-039
0.10701557 0.097079836 0.01162933 1.1496323e-039
0.1086395 0.097799897 0.010979403 1.6102461e-039
0.11025843 0.098520085 0.010329378 1.7942814e-039
0.11115476 0.10068248 0.0082480256 1.7024417e-039
0.11275837 0.10140282 0.0075977836 2.440727e-039
0.1150855 0.10068113 0.0083792051 2.9013492e-039
0.11705153 0.1006806 0.0084450096 2.0715886e-039
0.11827884 0.10212237 0.0070788609 2.2567029e-039
0.11949588 0.10356419 0.0057125464 1.5187833e-039
0.12107766 0.10428505 0.0050622299 1.3343921e-039
0.12341009 0.10356387 0.0058444985 5.975473e-040
0.125368 0.10356386 0.0059107062 1.0585254e-039
0.12732659 0.10356397 0.0059770867 6.8974293e-040
0.12851414 0.10500634 0.0046104761 7.8193856e-040
0.13046855 0.10500666 0.0046770051 7.8121829e-040
0.13203241 0.10572822 0.0040269066 6.8829959e-040
0.13437949 0.10500768 0.0048105987 6.8829959e-040
0.13673274 0.1042873 0.0055946107 1.1485575e-039
0.13909212 0.10356703 0.0063789943 9.6416621e-040
0.14105561 0.10356797 0.0064466177 9.6416621e-040
0.14463919 0.10068472 0.0093833907 1.516254e-039
0.0038320269 0.01151235 0.088884436 4.6339497e-039
0.0050249905 0.015843464 0.084709629 6.2005691e-039
0.0067446027 0.018007165 0.08265774 3.6230516e-039
0.0086368695 0.019448357 0.081313431 3.2546292e-039
0.010518013 0.020889595 0.079968713 2.4255888e-039
0.012777156 0.020885792 0.080040157 2.6071018e-039
0.014641512 0.022327004 0.078694917 3.155954e-039
0.016094849 0.025213294 0.07593248 3.4260234e-039
0.017323673 0.028822128 0.07246083 7.5701016e-039
0.018935917 0.030985978 0.070405506 1.6868825e-038
0.02073976 0.032427281 0.069058359 1.7142524e-038
0.022743305 0.033146083 0.06841962 1.6679745e-038
0.024314264 0.035310008 0.066362999 1.7602765e-038
0.025868794 0.037473965 0.064305842 1.6496418e-038
0.027625738 0.038915366 0.06295725 1.1987164e-038
0.029371642 0.040356804 0.061608303 1.3465203e-038
0.031106528 0.041798305 0.060258992 1.6682269e-038
0.033057321 0.042517249 0.059618652 1.7236519e-038
0.034543235 0.044681363 0.057559401 1.8065924e-038
0.036477428 0.045400355 0.056918558 1.7787542e-038
0.038405996 0.046119373 0.056277577 1.6678301e-038
0.040328961 0.046838414 0.055636428 1.6215198e-038
0.042005952 0.048280109 0.054285396 1.1062376e-038
0.043428916 0.050444379 0.052224319 1.2256596e-038
0.044835545 0.052608743 0.050162703 1.1796681e-038
0.046722792 0.053327933 0.049520537 1.2628238e-038
0.048855629 0.053324562 0.04958827 1.6125522e-038
0.051749911 0.051153429 0.051786389 9.3959612e-039
0.053377442 0.05259531 0.050434031 9.0268466e-039
0.054475594 0.055482492 0.047660742 8.7509688e-039
0.055814005 0.057647124 0.045597173 1.5758554e-038
0.057136193 0.059811771 0.043533176 1.0410487e-038
0.058976751 0.060531251 0.042889815 1.7797691e-038
0.06108183 0.060528152 0.042956952 1.7243454e-038
0.063186899 0.06052509 0.043024138 6.9175435e-039
0.065016411 0.061244734 0.04238053 1.1250738e-038
0.066562466 0.062687024 0.041025948 1.8441277e-038
0.068378478 0.063406736 0.040382054 1.733565e-038
0.069905579 0.06484919 0.039026957 1.6963999e-038
0.071135737 0.067014292 0.036960442 9.3121272e-039
0.072927475 0.067734227 0.036315922 6.7443696e-039
0.074422285 0.069176815 0.034960005 5.7338317e-039
0.075906344 0.070619524 0.033603769 4.5432086e-039
0.077379704 0.072062247 0.032247297 1.6941544e-039
0.079141937 0.072782382 0.031602148 1.052399e-039
0.080596529 0.074225284 0.030245174 1.052399e-039
0.082345471 0.074945539 0.029599726 1.2367902e-039
0.083781399 0.076388545 0.028242363 2.0665509e-039
0.085517049 0.077108949 0.027596653 1.3289859e-039
0.086934395 0.078552134 0.026238797 1.1445946e-039
0.088972606 0.078549996 0.026304929 9.6092361e-040
0.090692542 0.079270601 0.025658967 9.609208e-040
0.092407212 0.079991288 0.02501292 1.1456666e-039
0.093792848 0.081434771 0.023654383 9.6127533e-040
0.095494486 0.082155615 0.023008093 1.7888668e-039
0.097190946 0.082876526 0.022361737 9.9805255e-039
0.098218426 0.085042961 0.020290006 1.6697009e-038
0.099229924 0.087209433 0.018217882 1.715725e-038
0.10022555 0.089376047 0.016145308 1.7339845e-038
0.10154526 0.090820044 0.014785202 1.3932697e-038
0.10354001 0.090818673 0.014850882 4.1787463e-039
0.10518961 0.091540106 0.014203612 8.7340131e-040
0.10648607 0.092984319 0.012843108 1.5180504e-039
0.10812292 0.093705922 0.012195623 1.5176945e-039
0.10940121 0.095150366 0.010834716 9.6452074e-040
0.11066914 0.09659487 0.0094736125 1.1496323e-039
0.11192666 0.098039508 0.0081122415 1.7942814e-039
0.11353547 0.098761484 0.0074643074 1.3340235e-039
0.11513931 0.099483564 0.0068163322 2.4403711e-039
0.11710522 0.099483013 0.0068821032 1.9793929e-039
0.11870192 0.10020529 0.0062341476 2.717681e-039
0.12029371 0.1009277 0.0055861003 2.3488999e-039
0.12150556 0.1023729 0.0042240201 1.5191393e-039
0.12308498 0.10309547 0.003575864 1.3354683e-039
0.12389851 0.10526364 0.0014991593 1.4269436e-039
0.1258461 0.1052637 0.0015651234 8.7449012e-040
0.12779431 0.10526389 0.0016312448 1.151077e-039
0.12974314 0.10526417 0.0016975338 1.2425524e-039
0.13169263 0.10526457 0.0017639904 9.6596548e-040
0.13364285 0.1052651 0.0018306279 1.1503567e-039
0.13599055 0.10454302 0.0026122348 5.9610396e-040
0.13874388 0.10309831 0.0041091531 1.1489148e-039
0.14191097 0.10093105 0.0063215694 1.3318627e-039
0.0040812003 0.0093872212 0.087761916 4.1744261e-039
0.0056440961 0.012279991 0.085011743 4.4531724e-039
0.0073715895 0.014448686 0.082966648 3.4390204e-039
0.0092717949 0.015893215 0.081626974 2.9787626e-039
0.011160878 0.017337803 0.080286883 2.5185047e-039
0.013428165 0.017334066 0.080358684 2.4227091e-039
0.015497763 0.018054469 0.079724275 2.4169456e-039
0.016761562 0.021671548 0.07626459 4.0731963e-039
0.017998073 0.025288679 0.072804049 7.388611e-039
0.019412749 0.028181683 0.070049062 1.5026739e-038
0.021429922 0.028902169 0.069412984 1.6869911e-038
0.02323061 0.030346878 0.068070084 1.6867746e-038
0.025020262 0.031791579 0.066726893 1.6129447e-038
0.026582614 0.033960525 0.064676538 1.7697129e-038
0.028128568 0.036129508 0.062625669 9.0448771e-039
0.029879672 0.037574288 0.061281275 9.5101895e-039
0.031619783 0.039019093 0.059936546 1.4473212e-038
0.033575848 0.039739773 0.05929856 1.6404619e-038
0.035296582 0.041184627 0.057953238 1.7602066e-038
0.037238762 0.041905321 0.057314903 1.6864854e-038
0.03894021 0.043350287 0.055968978 1.6677594e-038
0.040868487 0.044071026 0.055330228 1.3080535e-038
0.042550664 0.045516014 0.053983778 1.2899426e-038
0.0442219 0.046961088 0.052636974 1.419086e-038
0.045636293 0.04913038 0.050582167 1.3178876e-038
0.047780074 0.049127027 0.050650287 1.2721877e-038
0.049672388 0.049847979 0.050010491 1.08769e-038
0.052574936 0.047671903 0.052202538 8.4797993e-039
0.053440455 0.051289894 0.048730571 1.290664e-038
0.055575501 0.05128666 0.04879855 8.1085127e-039
0.056662414 0.054180525 0.04603361 1.391971e-038
0.057992347 0.056350198 0.043976344 8.6609452e-039
0.059038669 0.059244141 0.04121023 1.7335638e-038
0.061413758 0.058516815 0.04198591 1.7151258e-038
0.063248657 0.059238069 0.04134468 1.6873951e-038
0.06480258 0.060683686 0.039994612 6.6409566e-039
0.066067509 0.062853634 0.037935495 1.1434409e-038
0.0684397 0.062126432 0.03871135 1.7243454e-038
0.069966607 0.063572213 0.037360586 1.7888103e-038
0.071768947 0.064293727 0.036718581 5.9026559e-039
0.072988003 0.066463903 0.034658231 7.1962884e-039
0.074774213 0.067185536 0.034015827 5.4453029e-039
0.076260723 0.068631515 0.032664064 6.2750776e-039
0.077736504 0.070077606 0.031311974 5.9182103e-039
0.079501271 0.07079941 0.030669088 5.9034182e-040
0.080958322 0.072245583 0.029316574 8.6800491e-040
0.083014846 0.072243199 0.029383013 9.6020334e-040
0.084455878 0.073689558 0.028030096 9.6020334e-040
0.086196758 0.074411623 0.02738674 1.1445946e-039
0.087619253 0.075858079 0.026033422 1.2367874e-039
0.089346863 0.076580323 0.025389753 1.4211787e-039
0.091387846 0.076578267 0.025456091 1.144589e-039
0.092786506 0.078024939 0.024102261 1.6059245e-039
0.0944985 0.078747354 0.023458382 1.6977544e-039
0.096531965 0.078745514 0.023524754 8.0422635e-039
0.09823627 0.079468124 0.022880768 1.3195841e-038
0.099603467 0.080915108 0.021526273 3.1660251e-039
0.10029069 0.083810903 0.01875034 3.6284536e-039
0.10095665 0.086706795 0.01597381 5.2858015e-039
0.10262162 0.087429687 0.015328977 1.5682913e-038
0.10393873 0.088877022 0.013973245 1.0153053e-038
0.10628179 0.088151388 0.014750054 3.3518667e-039
0.10723784 0.090323284 0.01268304 1.6084468e-039
0.10852896 0.091770887 0.011326773 7.7905328e-040
0.11016326 0.09249422 0.010681472 9.6452354e-040
0.11179257 0.093217678 0.010036068 1.4251444e-039
0.11305788 0.094665557 0.0086792894 8.7197058e-040
0.11431286 0.096113563 0.0073222425 8.7269085e-040
0.11592187 0.096837267 0.0066765705 1.333669e-039
0.11789303 0.096836701 0.0067424998 1.5191393e-039
0.11912508 0.09828496 0.0053850915 1.8879218e-039
0.12071939 0.099008948 0.0047393027 2.1645087e-039
0.12193363 0.10045745 0.0033815149 2.4410956e-039
0.12313762 0.10190602 0.0020235528 2.8091564e-039
0.12395076 0.10407907 -4.6757981e-005 2.2552596e-039
0.12589818 0.10407911 1.9155443e-005 2.2556155e-039
0.12746021 0.10480362 -0.00062705856 2.0712242e-039
0.12979484 0.10407951 0.00015146332 7.8336928e-040
0.13174421 0.10407989 0.00021787127 6.9153379e-040
0.13408834 0.103356 0.00099699781 1.1503567e-039
0.13604178 0.10335658 0.0010638379 1.4255017e-039
0.13839553 0.1026329 0.0018436401 1.4247786e-039
0.14316897 0.097563177 0.0069008553 1.608814e-039
0.0037868046 0.0094359815 0.084524378 4.7268768e-039
0.0057118228 0.01088386 0.08318992 4.7293991e-039
0.0074390648 0.013057573 0.081151366 2.9802031e-039
0.0095284395 0.013779674 0.08051984 2.6107003e-039
0.011420099 0.015227625 0.079184249 2.1497222e-039
0.013690064 0.015223945 0.079256214 2.9765934e-039
0.015367473 0.017397659 0.077216074 1.7726412e-039
0.01682828 0.020297248 0.074471258 4.4408984e-039
0.018470019 0.022471067 0.072429948 7.1138486e-039
0.020095268 0.024644861 0.070388138 1.1065992e-038
0.022120468 0.02536709 0.069754519 1.1244568e-038
0.023718195 0.027540937 0.06771186 1.3457244e-038
0.025513045 0.028989021 0.066373169 1.7698949e-038
0.027080569 0.031162919 0.06432955 1.8250668e-038
0.028850621 0.032611061 0.062990092 1.2995177e-038
0.030387953 0.03478507 0.0609455 8.770828e-039
0.032133263 0.036233228 0.05960533 1.1620216e-038
0.034094628 0.036955558 0.058969773 1.5574519e-038
0.036050372 0.037677918 0.058334075 1.6770537e-038
0.03776801 0.039126191 0.056993015 1.7414806e-038
0.039239526 0.041300327 0.054946464 1.5755283e-038
0.041170359 0.042022809 0.054309983 1.6214818e-038
0.042855017 0.043471139 0.052967984 1.6308103e-038
0.04452876 0.044919565 0.051625639 1.8061616e-038
0.045945581 0.047093853 0.049577437 1.6771951e-038
0.048091996 0.047090545 0.049645707 1.668048e-038
0.050238229 0.047087267 0.049714006 8.2032264e-039
0.0526383 0.046358123 0.050488159 7.5574913e-039
0.054016799 0.04853262 0.048438832 1.1523705e-038
0.055897798 0.049255323 0.047801048 9.3103027e-039
0.056724921 0.052881721 0.04433877 7.0032427e-039
0.058319356 0.054330435 0.042994216 1.1983602e-038
0.059367966 0.05723105 0.040236805 9.5883343e-039
0.061475605 0.057228036 0.040304147 1.8348361e-038
0.063037485 0.058676943 0.03895865 1.7519321e-038
0.064588495 0.06012585 0.037612885 1.7612237e-038
0.066406943 0.060848899 0.036973435 1.5768324e-038
0.068781801 0.060120128 0.037747219 1.7244172e-038
0.071445689 0.058665462 0.039228011 1.7427834e-038
0.073261306 0.059388641 0.038588639 6.9164435e-039
0.074493527 0.06156379 0.036535215 1.9087355e-038
0.076001346 0.063013017 0.035188414 1.8349802e-038
0.077498384 0.064462319 0.033841334 1.8350527e-038
0.078687608 0.066637672 0.031786725 8.8554804e-039
0.080460273 0.067361146 0.031146282 1.8789114e-039
0.081925161 0.068810679 0.029798327 8.680021e-040
0.083684459 0.069534272 0.029157588 6.8361645e-040
0.085130677 0.070983902 0.027809223 8.6800771e-040
0.08687675 0.071707673 0.027168183 4.9922519e-040
0.088304318 0.073157437 0.025819356 1.788885e-039
0.09003716 0.073881298 0.02517808 1.5122883e-039
0.091446191 0.075331256 0.023828784 1.6966796e-039
0.093165889 0.076055259 0.023187244 1.697397e-039
0.095204391 0.076053359 0.0232537 2.5267864e-039
0.097243093 0.076051518 0.023320252 1.1536686e-038
0.098623253 0.077501729 0.02197041 7.6673615e-039
0.10032492 0.078226075 0.021328604 2.7983314e-039
0.10168673 0.079676442 0.01997835 2.5235494e-039
0.10270047 0.08185292 0.017919274 2.7976111e-039
0.10369837 0.084029451 0.015859835 9.9780242e-039
0.10536616 0.084754065 0.015217351 9.8807951e-039
0.10702879 0.085478827 0.014574763 2.8908885e-039
0.10868641 0.08620362 0.013932152 9.630802e-040
0.10998805 0.087654501 0.012580534 9.6344454e-040
0.11092561 0.089831509 0.010519582 1.2400328e-039
0.11256009 0.090556562 0.0098765306 8.7125031e-040
0.11418954 0.09128172 0.009233444 6.8757932e-040
0.11581408 0.092006996 0.0085902587 5.9718296e-040
0.11670475 0.094184339 0.0065282462 1.1485575e-039
0.11868118 0.094183758 0.0065943347 7.7977495e-040
0.11991834 0.095635332 0.005241341 1.2414734e-039
0.12151784 0.096360952 0.0045978413 1.1503567e-039
0.12236188 0.098538712 0.0025347222 1.8872001e-039
0.12319036 0.10071656 0.00047125155 3.0850202e-039
0.1240031 0.10289453 -0.0015926571 3.360884e-039
0.125567 0.10362054 -0.0022368394 5.0171628e-039
0.12789819 0.10289466 -0.0014607636 5.107199e-039
0.12945791 0.10362089 -0.0021048114 2.532201e-039
0.13179581 0.1028952 -0.001328236 1.6102559e-039
0.13335149 0.10362165 -0.0019721328 1.7010096e-039
0.13609314 0.10217018 -0.00048453314 2.0708711e-039
0.13844675 0.1014448 0.00029305043 1.3329515e-039
0.0078798607 0.01021146 0.080738962 2.6128625e-039
0.0099745523 0.010935273 0.080109857 2.2451548e-039
0.011871481 0.012386538 0.078778878 2.0578825e-039
0.013952053 0.01311036 0.078149304 2.8843949e-039
0.015631892 0.01528913 0.07611575 5.9992012e-039
0.017095085 0.01819537 0.07337971 9.9524281e-039
0.018942183 0.019646695 0.072047114 1.2897999e-038
0.020778172 0.021098074 0.070714116 1.4738972e-038
0.022811381 0.021821963 0.07008303 1.5660564e-038
0.024416946 0.024000848 0.068047114 1.4465311e-038
0.026219733 0.025452238 0.066713117 1.1522999e-038
0.027795063 0.027631178 0.064676248 1.2354555e-038
0.029573066 0.029082626 0.063341483 1.3919672e-038
0.031118192 0.031261627 0.061303671 1.6036168e-038
0.03287144 0.032713126 0.059968136 1.6773733e-038
0.034840789 0.033437204 0.059335038 1.6768693e-038
0.03680449 0.034161255 0.058701809 1.6581078e-038
0.038530048 0.035612836 0.057365444 1.5841008e-038
0.040009327 0.037791997 0.055325627 1.3904182e-038
0.041948166 0.038516141 0.054691676 1.7415854e-038
0.043640751 0.039967816 0.053354315 1.7971927e-038
0.045079026 0.042147089 0.051313262 1.8525107e-038
0.046746988 0.043598894 0.049975131 1.7972653e-038
0.048901416 0.043595631 0.050043732 1.9169037e-038
0.051307097 0.042864822 0.050815992 1.1699397e-038
0.053209767 0.043589182 0.050181013 1.475091e-038
0.054593362 0.045768619 0.04813841 7.739363e-039
0.056220137 0.047220606 0.046799134 1.6123005e-038
0.057573855 0.049400143 0.044755653 8.9411474e-039
0.059176128 0.050852232 0.043415681 1.8901533e-038
0.060767587 0.052304316 0.042075437 1.7795187e-038
0.062348105 0.053756498 0.040734842 1.3001015e-038
0.063917845 0.055208683 0.039393999 1.6504448e-038
0.065201074 0.057388544 0.037348453 1.816397e-038
0.067024752 0.058113266 0.036711376 1.8073213e-038
0.069124028 0.058110472 0.036778722 1.7611869e-038
0.071506947 0.057380125 0.037550725 1.0408716e-038
0.07332246 0.058104992 0.036913555 1.2068237e-038
0.074554324 0.060285121 0.034866624 1.5580682e-038
0.076061904 0.061737683 0.033524163 1.2816974e-038
0.077558726 0.063190311 0.032181427 1.6044911e-038
0.079341926 0.063915439 0.031543408 8.1175356e-039
0.081119813 0.064640589 0.030905334 2.614666e-039
0.082589835 0.0660934 0.029561929 1.0516731e-039
0.084354401 0.066818714 0.028923525 9.6020054e-040
0.086113654 0.067544043 0.02828506 9.5912434e-040
0.087557003 0.068997048 0.026941005 1.2357112e-039
0.088989697 0.070450172 0.025596643 1.7874361e-039
0.090727746 0.071175709 0.024957724 1.1445185e-038
0.092141904 0.072628915 0.023612956 1.208765e-038
0.0935454 0.074082255 0.022267887 3.7166807e-039
0.095262431 0.074807994 0.021628533 6.3013856e-039
0.097301036 0.074806184 0.021695111 1.4762008e-038
0.099010356 0.075532064 0.021055676 1.558995e-038
0.1010467 0.075530395 0.021122353 1.4113407e-038
0.10241356 0.076984093 0.019776532 1.1166404e-038
0.10376998 0.07843785 0.018430516 1.0608955e-038
0.10511584 0.079891682 0.017084243 1.4573322e-038
0.10645118 0.081345618 0.015737664 1.0334891e-038
0.10812176 0.082071975 0.015097537 5.8310439e-039
0.10943896 0.08352606 0.013750623 1.5119338e-039
0.11074567 0.084980264 0.012403421 1.1456778e-039
0.11168823 0.087162204 0.01034908 5.9466202e-040
0.11368433 0.087161258 0.010415357 9.6272007e-040
0.11496256 0.088615686 0.0090675764 1.6992061e-039
0.11659227 0.089342564 0.0084267426 2.4335341e-039
0.11785249 0.090797223 0.0070785573 1.1467554e-039
0.11946963 0.091524273 0.0064375438 9.6272427e-040
0.12034199 0.093706772 0.004381544 7.7977495e-040
0.12194395 0.094434023 0.0037402667 1.2411104e-039
0.12316565 0.095889002 0.0023913046 1.4255017e-039
0.12437713 0.097344138 0.001042098 1.3350997e-039
0.12557839 0.098799333 -0.00030728336 2.2556141e-039
0.12715283 0.099526972 -0.00094899535 5.0146376e-039
0.12795021 0.10171005 -0.0030067484 7.0407779e-039
0.1295097 0.1024379 -0.0036486862 1.0998699e-038
0.13223904 0.10098287 -0.0021661427 1.2468789e-038
0.13419142 0.10098328 -0.0020995964 1.1914186e-038
0.13614452 0.10098378 -0.0020328839 3.9083041e-039
0.13969707 0.098073766 0.00086785783 1.9790412e-039
0.010231408 0.0088132359 0.078991637 2.4288286e-039
0.011938667 0.010996945 0.07696557 3.2549823e-039
0.014019193 0.011722492 0.076338246 3.4368484e-039
0.015896391 0.013177175 0.075010963 9.7763339e-039
0.017762506 0.014631836 0.073683381 1.3913198e-038
0.019414542 0.016815657 0.071655482 1.4923012e-038
0.021255801 0.018270353 0.070327088 1.5382532e-038
0.023294298 0.018995991 0.069698378 1.6120821e-038
0.025116062 0.020450713 0.068369366 1.492231e-038
0.026712991 0.022634631 0.066339739 1.3454779e-038
0.028509969 0.0240894 0.065009952 7.7577621e-039
0.030076707 0.026273374 0.06297937 1.0794044e-038
0.031627003 0.028457323 0.060948305 1.6127635e-038
0.033385422 0.029912222 0.059617281 1.7419814e-038
0.035132818 0.031367108 0.05828597 1.6125116e-038
0.037099108 0.032092907 0.057655018 1.6307723e-038
0.038827203 0.033547841 0.056323122 1.6762591e-038
0.04054423 0.035002805 0.05499088 1.5839914e-038
0.042250298 0.036457844 0.053658273 1.649534e-038
0.043945383 0.037912872 0.052325375 1.8065191e-038
0.045386087 0.040097155 0.050290935 1.7972653e-038
0.047302645 0.040823087 0.049658582 1.7880103e-038
0.049213659 0.041549053 0.049026072 1.6959956e-038
0.051873513 0.04008751 0.050497737 9.8569618e-039
0.053273108 0.042271938 0.0484621 1.1708817e-038
0.055427033 0.042268813 0.048530862 9.7665865e-039
0.056283005 0.045911711 0.045091115 1.732118e-038
0.057898656 0.047367044 0.043755934 1.1419599e-038
0.05923849 0.049551673 0.041718543 1.7702992e-038
0.061097339 0.050277896 0.04108461 1.7702992e-038
0.062680401 0.051733386 0.039748523 1.7702992e-038
0.064525574 0.052459739 0.039114207 1.6873951e-038
0.066089615 0.053915314 0.037777595 1.0788319e-038
0.068478033 0.053183291 0.038547587 8.3897911e-039
0.070309602 0.053909749 0.037913036 6.7266446e-039
0.072419517 0.053907014 0.037980821 1.0962941e-038
0.07424292 0.054633554 0.037346102 1.2525592e-038
0.075482562 0.056818653 0.035305932 1.105696e-038
0.076997988 0.058274537 0.033968084 1.5859078e-038
0.078797147 0.059001293 0.033332728 1.5030037e-038
0.080293782 0.060457297 0.031994395 1.6321861e-038
0.081479676 0.062642649 0.029952737 2.9809276e-039
0.082952179 0.064098783 0.028613757 1.5115708e-039
0.084719256 0.064825736 0.027977675 4.9850212e-040
0.086481005 0.065552779 0.027341435 1.1427953e-039
0.088237531 0.066279851 0.02670515 1.0513102e-039
0.089675374 0.067736238 0.025365336 4.1819791e-039
0.091418587 0.068463437 0.024728762 1.595871e-038
0.093156643 0.069190755 0.024092073 1.6233472e-038
0.094246514 0.071376607 0.022047931 1.0250644e-038
0.095644563 0.072833329 0.020707093 5.0056007e-039
0.097358927 0.073560804 0.020069914 1.1263297e-038
0.0993976 0.073559076 0.020136602 1.4299211e-038
0.10110427 0.074286692 0.019499339 1.6878487e-038
0.10280582 0.075014383 0.018862013 1.6601547e-038
0.10416459 0.076471478 0.017520333 1.6693757e-038
0.10517259 0.07865788 0.015474143 1.6878842e-038
0.10685069 0.079385847 0.014836276 1.6784871e-038
0.10852374 0.080113858 0.014198394 1.4664455e-038
0.11054017 0.080112651 0.01426502 5.0041868e-039
0.11185469 0.081570104 0.012922421 1.0516731e-039
0.11315878 0.083027691 0.011579541 9.6164387e-040
0.11480907 0.08375603 0.010941318 2.1587409e-039
0.11609507 0.085213736 0.0095980875 1.880352e-039
0.11737077 0.086671583 0.0082545932 2.0640244e-039
0.11827151 0.088858776 0.0062057888 1.0549157e-039
0.11989114 0.08958751 0.0055669509 1.1474715e-039
0.12113582 0.091045588 0.0042228019 1.6080937e-039
0.12237024 0.092503794 0.0028783893 1.2393112e-039
0.12396974 0.093232766 0.0022392732 8.7232791e-040
0.12556444 0.093961827 0.0016001177 9.6524381e-040
0.12677351 0.095420286 0.00025526853 1.0559961e-039
0.1272053 0.098337471 -0.0025013573 4.3613439e-039
0.12838851 0.099796161 -0.0038468726 6.2066956e-039
0.12917259 0.10198422 -0.0058984961 5.5670799e-039
0.13150765 0.10125518 -0.0051264009 1.5606293e-038
0.13384876 0.10052624 -0.0043539735 1.9835031e-038
0.1369901 0.09833879 -0.0021687252 1.403252e-038
0.14254691 0.091775618 0.0042550988 4.6437027e-039
0.014476132 0.0088730138 0.075922005 4.3555579e-039
0.016556241 0.009600278 0.075296924 5.7319861e-039
0.018630657 0.010327546 0.074671634 1.0241615e-038
0.019887121 0.013977915 0.071255095 1.5018795e-038
0.021733593 0.015435962 0.069931269 1.6400642e-038
0.023568999 0.016894037 0.068607099 1.72304e-038
0.025815573 0.016890591 0.06867858 1.7140369e-038
0.027634196 0.018348731 0.067353822 1.585433e-038
0.02922524 0.020537628 0.065330602 1.3000279e-038
0.030799802 0.022726595 0.063306808 1.1711702e-038
0.032357916 0.024915587 0.061282504 1.5944691e-038
0.034124244 0.026373796 0.059956167 1.751237e-038
0.036106903 0.027101235 0.059328012 1.7508756e-038
0.037853856 0.028559536 0.058001045 1.6125103e-038
0.039589815 0.030017812 0.056673776 1.7318627e-038
0.041079357 0.032206967 0.05464736 1.5566569e-038
0.043028723 0.032934509 0.054018214 1.5216161e-038
0.044731691 0.034392934 0.052689921 1.6040867e-038
0.046423685 0.035851344 0.051361341 1.7327651e-038
0.048350915 0.036578972 0.050731558 1.7510966e-038
0.050521418 0.036575805 0.050800826 1.1520072e-038
0.052691761 0.036572665 0.050870121 1.3275048e-038
0.054099146 0.038762078 0.048841264 9.3974256e-039
0.055490263 0.040951543 0.046811923 1.3635165e-038
0.05634575 0.044602733 0.043382987 9.0254089e-039
0.058223575 0.045330577 0.042751819 1.6685593e-038
0.060095847 0.046058461 0.042120509 1.3460196e-038
0.062230341 0.046055533 0.042188872 1.1247498e-038
0.063823931 0.047514386 0.040857445 1.7059063e-038
0.065406702 0.048973244 0.039525751 1.7610796e-038
0.066978566 0.050432153 0.038193759 1.8254366e-038
0.068818092 0.051160283 0.037561569 1.8531676e-038
0.070371009 0.052619293 0.03622907 1.8069975e-038
0.072197005 0.05334748 0.035596587 1.2168733e-038
0.074304134 0.053344849 0.035664409 8.4769323e-039
0.076121964 0.054073133 0.035031781 9.0311668e-039
0.077642553 0.055532392 0.033698417 1.8534179e-038
0.079152338 0.056991667 0.032364797 1.7612591e-038
0.080354065 0.059181929 0.030330094 1.7796988e-038
0.082139686 0.059910432 0.029696669 7.6623364e-039
0.083617285 0.061369933 0.028362161 1.5101303e-039
0.085694931 0.061367653 0.028429456 1.5115708e-039
0.087464646 0.062096335 0.027795713 1.6952404e-039
0.089229085 0.062825076 0.027161879 2.3391665e-039
0.090674676 0.064284816 0.025826609 2.613573e-039
0.09242586 0.065013692 0.025192494 7.0302934e-039
0.094171822 0.065742619 0.024558274 1.5775756e-038
0.095269434 0.067933477 0.022520831 1.6602961e-038
0.096351072 0.070124373 0.020482991 9.5116048e-039
0.097743668 0.071584478 0.019146388 1.2829539e-038
0.099784955 0.071582764 0.019213194 1.5958766e-038
0.10182649 0.071581125 0.019280098 1.3468434e-038
0.10319819 0.073041394 0.017943112 1.1908674e-038
0.1045594 0.074501783 0.016605834 1.5037131e-038
0.10591012 0.075962216 0.015268355 1.6603711e-038
0.10725036 0.077422723 0.013930614 1.3011414e-038
0.10892585 0.078152418 0.013294918 1.1079988e-038
0.11094484 0.078151226 0.013361641 1.1816887e-038
0.11261296 0.07888104 0.012725945 3.7170479e-039
0.11392224 0.080341868 0.011387583 2.9823653e-039
0.11522109 0.08180283 0.010048941 6.474984e-039
0.11650951 0.083263822 0.0087100901 5.0048944e-039
0.11778758 0.084724955 0.0073709628 3.8103169e-039
0.11942001 0.085455194 0.0067346147 2.0654593e-039
0.12068015 0.086916454 0.0053951568 1.8810708e-039
0.12155987 0.089108795 0.0033522767 1.6988418e-039
0.12279675 0.090570241 0.0020122705 1.2396615e-039
0.12477418 0.090569898 0.0020786917 1.422622e-039
0.12637405 0.091300637 0.0014418019 1.3297061e-039
0.12758815 0.092762351 0.00010138005 6.5686398e-039
0.12840854 0.094955161 -0.0019428888 8.2976487e-039
0.12921326 0.097148016 -0.0039875335 5.8321496e-039
0.13039137 0.098610073 -0.0053288336 3.7239002e-039
0.13942443 0.092763454 0.0005031121 1.0084674e-038
0.020766187 0.0096686166 0.072237186 1.4008632e-038
0.022417463 0.011862425 0.070222422 1.5942915e-038
0.024260767 0.01332389 0.06890285 1.6497151e-038
0.026304219 0.014052922 0.068278834 1.6590071e-038
0.028341999 0.014781963 0.067654625 1.6777721e-038
0.029940836 0.016975898 0.065638155 1.6225283e-038
0.031303938 0.019902291 0.062925056 1.2999184e-038
0.032867227 0.022096261 0.060907517 1.6959208e-038
0.034638766 0.02355786 0.059585694 1.6867001e-038
0.036626667 0.02428701 0.058959953 1.6865186e-038
0.03860895 0.025016174 0.058334034 1.7048134e-038
0.040120021 0.027210295 0.056314833 1.6029686e-038
0.041614674 0.029404454 0.05429513 1.5661638e-038
0.04333118 0.030866157 0.05297168 9.4158092e-039
0.045277491 0.031595428 0.052344687 1.1165716e-038
0.047218267 0.032324728 0.051717538 1.6038001e-038
0.049153421 0.033054106 0.051090211 1.7049633e-038
0.051332012 0.033050988 0.051159818 9.305216e-039
0.053007077 0.03451284 0.04983516 1.004604e-038
0.054671213 0.03597473 0.048510186 9.7726975e-039
0.055810414 0.038901672 0.045790229 1.068493e-038
0.056927882 0.041828666 0.043069609 9.6776362e-039
0.058548514 0.043290734 0.04174329 1.7519321e-038
0.06042337 0.044020317 0.041114293 1.7425694e-038
0.062560499 0.044017438 0.041182812 1.4199202e-038
0.064427048 0.044747092 0.040553622 7.4674775e-039
0.066288143 0.045476791 0.039924305 7.83626e-039
0.067592025 0.047671586 0.037898973 1.7148739e-038
0.069158241 0.049133878 0.036571212 1.7610796e-038
0.070713609 0.050596263 0.035243105 1.7334929e-038
0.072542153 0.051326148 0.034612931 1.7703712e-038
0.074365273 0.052056078 0.033982631 1.9175588e-038
0.076182976 0.05278606 0.033352219 6.1763617e-039
0.077703275 0.054248646 0.032023188 1.3463067e-038
0.079507552 0.054978728 0.031392451 6.2710881e-039
0.080711663 0.057173975 0.02936434 8.762891e-039
0.082199715 0.058636691 0.028034493 6.1043714e-039
0.083979875 0.059366941 0.027403155 1.7867172e-039
0.086365633 0.058632161 0.028169462 1.6037665e-039
0.088448703 0.058629975 0.028237052 2.0629369e-039
0.089910142 0.060092978 0.026906576 5.3772755e-039
0.091674507 0.060823452 0.026275001 1.2000176e-038
0.092801094 0.063019127 0.024244834 1.1260811e-038
0.094549574 0.063749731 0.023612887 9.0502441e-039
0.095971189 0.06521295 0.022281449 1.5130037e-038
0.097382136 0.066676289 0.020949703 1.2365712e-038
0.099109605 0.067407094 0.020317307 5.4633362e-039
0.10083183 0.068137966 0.019684829 3.7188303e-039
0.10254893 0.068868905 0.019052256 3.1663936e-039
0.1035907 0.071065091 0.01701989 3.9032244e-039
0.1052921 0.071796171 0.016386976 9.4240979e-039
0.10630744 0.073992521 0.014353922 1.2177696e-038
0.10799328 0.07472375 0.013720689 3.9939753e-039
0.109674 0.075455055 0.013087371 4.363834e-039
0.11204682 0.074721292 0.013854556 4.5464204e-039
0.11337158 0.076185331 0.012520915 3.9025153e-039
0.1146859 0.077649489 0.011186976 4.6397146e-039
0.11634655 0.078381121 0.010553398 1.5400588e-038
0.11764281 0.079845399 0.0092191091 1.5675027e-038
0.1189287 0.081309818 0.0078845359 1.4569767e-038
0.12020428 0.082774282 0.0065497709 6.5697034e-039
0.12183693 0.083506286 0.0059156483 3.0749239e-039
0.12309457 0.084970914 0.0045805085 1.1463869e-039
0.12396904 0.087168269 0.0025439998 8.7052164e-040
0.12557891 0.08790049 0.0019094872 1.5137288e-039
0.12680575 0.089365393 0.00057365163 2.4335257e-039
0.12802227 0.090830438 -0.0007624398 8.2976459e-039
0.12922862 0.09229552 -0.0020987294 9.6737308e-039
0.13042472 0.093760744 -0.0034352681 5.3722504e-039
0.13161069 0.095226027 -0.0047719912 3.0760113e-039
0.13356997 0.095226221 -0.0047054747 1.5011228e-039
0.13631891 0.09376134 -0.0032351473 4.6411804e-039
0.025161525 0.0090096556 0.069879219 1.5673195e-038
0.027004361 0.010474445 0.06856408 1.6226003e-038
0.028836135 0.011939308 0.06724856 1.5767563e-038
0.030440159 0.014138212 0.065238848 1.4940336e-038
0.032247078 0.01560311 0.063922532 1.0798769e-038
0.033820909 0.01780208 0.061911881 1.1258644e-038
0.035603024 0.01926703 0.060594797 1.6132355e-038
0.03737415 0.020731963 0.059277412 1.5300777e-038
0.039134223 0.022196967 0.05795965 1.6311683e-038
0.040650431 0.024396049 0.055947203 1.5570524e-038
0.042385764 0.025861114 0.054628685 1.437235e-038
0.044110164 0.027326167 0.053309876 7.0227278e-039
0.046305418 0.027323041 0.053380039 5.8310411e-039
0.048013214 0.028788188 0.052060694 9.777043e-039
0.049956337 0.029519219 0.051435892 1.2345165e-038
0.052142952 0.029516157 0.051505841 1.0865695e-038
0.053574171 0.031715523 0.049490791 1.0500879e-038
0.055243503 0.033180762 0.048170365 1.1243502e-038
0.0563877 0.036114343 0.045459256 8.6627528e-039
0.058029819 0.037579671 0.044138022 1.4659802e-038
0.059398513 0.039779224 0.042121105 1.7981374e-038
0.061281327 0.040510494 0.041494582 1.7518965e-038
0.063158624 0.04124181 0.040867921 1.7885949e-038
0.065030396 0.041973207 0.040241089 1.8899738e-038
0.066896744 0.042704593 0.039614156 1.7701192e-038
0.068481639 0.044170175 0.03829132 8.0213715e-039
0.069777079 0.046370007 0.036272291 7.1916109e-039
0.071056314 0.048569888 0.034252778 1.8257961e-038
0.072887383 0.04930146 0.033624891 1.899264e-038
0.074713044 0.050033085 0.032996897 7.0986809e-039
0.076533303 0.050764754 0.032368772 8.2050285e-039
0.078056097 0.052230686 0.0310442 1.8991931e-038
0.079568088 0.053696625 0.029719366 1.8623869e-038
0.081069373 0.055162672 0.028394213 1.1526617e-038
0.083160199 0.055160366 0.028461911 5.8260133e-039
0.085251145 0.055158108 0.028529678 1.5104946e-039
0.087036557 0.055890083 0.02790078 1.3271796e-039
0.088508427 0.057356309 0.026574958 3.7188303e-039
0.089969642 0.058822632 0.025248818 1.4582292e-038
0.091733836 0.059554785 0.02461943 1.7430907e-038
0.093176425 0.061021198 0.023292864 1.7522028e-038
0.094608404 0.062487721 0.021965994 1.4758407e-038
0.096351415 0.063220061 0.021336133 1.2642603e-038
0.09808927 0.063952461 0.020706188 1.0987836e-038
0.09982191 0.064684942 0.02007615 3.3493387e-039
0.10187913 0.064683259 0.020143533 1.787792e-039
0.10327161 0.066150114 0.018815752 1.7874361e-039
0.10431846 0.068351209 0.016790064 1.5108492e-039
0.10602506 0.069084004 0.016159467 1.9718273e-039
0.10738601 0.07055103 0.014830951 1.6963222e-039
0.10907976 0.071283922 0.014200142 9.5947747e-040
0.11076836 0.072016925 0.013569209 3.1682069e-039
0.11280057 0.072015733 0.013636394 3.7177695e-039
0.11413044 0.073483072 0.012307222 1.0794066e-038
0.11544994 0.074950486 0.010977808 1.5766474e-038
0.11675898 0.07641802 0.0096481005 1.7885144e-038
0.11841706 0.077151373 0.0090166871 1.7055373e-038
0.12007023 0.077884808 0.0083852224 1.7788614e-038
0.12135358 0.079352587 0.0070549659 1.6863428e-038
0.12299416 0.080086187 0.0064232927 1.3822474e-038
0.12425961 0.0815541 0.0050927028 8.127646e-039
0.12551472 0.083022147 0.0037618305 1.7895955e-039
0.12675957 0.084490225 0.0024307682 3.3497213e-039
0.12837254 0.085224181 0.0017986114 6.1029743e-039
0.12959957 0.086692482 0.00046714395 1.0139394e-038
0.13120015 0.087426618 -0.0001651966 8.2173361e-039
0.1324095 0.088895105 -0.0014970317 3.8099792e-039
0.13399781 0.089629412 -0.002129545 3.2477965e-039
0.13558139 0.090363823 -0.0027620955 6.008978e-039
0.14031658 0.085224375 0.002202814 3.7170633e-039
0.02911639 0.0098256618 0.06614209 7.4811752e-039
0.030939627 0.011293864 0.064830735 6.5624755e-039
0.032751814 0.01276209 0.063519046 5.1856717e-039
0.034552909 0.014230374 0.062206965 5.2775044e-039
0.035893243 0.017170144 0.059510566 8.3112918e-039
0.037666872 0.018638439 0.058197666 1.2084805e-038
0.039889947 0.018635292 0.058268733 1.4842349e-038
0.041413978 0.020839419 0.056263044 1.5855768e-038
0.043392893 0.021572052 0.055641547 1.548269e-038
0.044889517 0.02377625 0.05363502 1.3364375e-038
0.046610773 0.025244677 0.052320521 1.1430448e-038
0.048321072 0.026713192 0.051005658 1.4829761e-038
0.050266784 0.027445929 0.050383173 1.5932134e-038
0.052206941 0.028178696 0.049760539 1.5471145e-038
0.05414148 0.028911486 0.049137749 1.4275124e-038
0.055816002 0.030380121 0.047821838 1.5383281e-038
0.057222437 0.032584526 0.045812637 8.3836394e-039
0.058352634 0.0355248 0.043109797 1.0786154e-038
0.059986327 0.036993567 0.041792672 1.3184327e-038
0.06160913 0.03846233 0.040475279 1.3461638e-038
0.062953085 0.040666964 0.038464159 1.5858725e-038
0.065092698 0.040664233 0.038532954 1.7978502e-038
0.066958889 0.041397326 0.037908249 1.7886304e-038
0.069095619 0.041394658 0.037977025 1.7701913e-038
0.070396155 0.043599475 0.035964679 1.7886304e-038
0.072243273 0.044332691 0.035339486 1.4293548e-038
0.074084997 0.045065958 0.034714174 6.361839e-039
0.07563448 0.046535075 0.033394761 9.0304522e-039
0.076594226 0.049475916 0.030686898 1.3553453e-038
0.078116767 0.050945185 0.029366674 1.7059061e-038
0.079923406 0.05167865 0.028740438 1.2541111e-038
0.081724696 0.05241216 0.028114075 1.6873597e-038
0.08322034 0.053881586 0.026793152 7.5726772e-039
0.085311219 0.053879369 0.026860967 1.8778338e-039
0.087096497 0.054613039 0.026234278 1.8796317e-039
0.088876441 0.055346753 0.025607459 3.809954e-039
0.09065111 0.056080531 0.024980552 1.13573e-038
0.092420533 0.056814361 0.024353534 1.5403382e-038
0.093868218 0.058284134 0.023031436 1.4945278e-038
0.095305353 0.059753932 0.021709114 1.7155422e-038
0.096731819 0.061223838 0.020386476 1.5037491e-038
0.098796651 0.061222062 0.02045399 4.9137484e-039
0.10053448 0.061956201 0.019826302 2.8926836e-039
0.10259698 0.061954547 0.019893896 2.9845233e-039
0.10432716 0.062688805 0.019266112 3.3515052e-039
0.10538169 0.0648949 0.017247111 2.8919745e-039
0.10709625 0.065629303 0.016618989 1.880352e-039
0.10846501 0.067099646 0.015295058 1.3289831e-039
0.10982327 0.068570092 0.013970824 1.2367874e-039
0.11151713 0.069304712 0.013342281 2.5231948e-039
0.11355462 0.069303535 0.013409648 6.2012698e-039
0.11488961 0.070774205 0.01208492 1.6415097e-038
0.1165683 0.071509048 0.011456156 1.7058289e-038
0.11788521 0.072979838 0.010131056 1.6137411e-038
0.11919169 0.074450746 0.0088056754 1.5399476e-038
0.12048786 0.075921699 0.0074800868 1.6314563e-038
0.12177363 0.077392727 0.006154255 1.4373435e-038
0.12378426 0.077392086 0.006221422 1.5575252e-038
0.12505479 0.078863323 0.0048952498 1.0425331e-038
0.12668805 0.079598725 0.00426568 2.2462534e-039
0.12831642 0.080334224 0.0036360612 2.6128765e-039
0.12993994 0.081069842 0.0030063526 8.9484314e-039
0.13117753 0.082541384 0.0016795581 1.1336498e-038
0.1327887 0.083277136 0.0010496969 7.5773645e-039
0.13400853 0.084748894 -0.00027750805 4.7275999e-039
0.13521822 0.086220704 -0.0016048956 4.9076723e-039
0.13798542 0.084749095 -0.00014275033 4.8118754e-039
0.14549951 0.074446924 0.0096903984 3.7148983e-039
0.03347626 0.0091770422 0.063796438 4.5413911e-039
0.035285302 0.010648645 0.062489051 4.5417513e-039
0.036633391 0.013595073 0.059801619 3.8992671e-039
0.03841491 0.015066722 0.058493365 3.5312077e-039
0.040415719 0.015801067 0.057874747 3.8059967e-039
0.042177919 0.01727277 0.056565903 4.0818619e-039
0.044164799 0.018007107 0.055946905 4.7261425e-039
0.045669246 0.020216303 0.053947177 5.9214431e-039
0.046916176 0.023162935 0.051256586 1.3917158e-038
0.048385188 0.025372207 0.049255766 1.5844588e-038
0.050330795 0.026106669 0.048635524 1.6028612e-038
0.052270819 0.026841145 0.048015121 1.6305199e-038
0.054457154 0.026838243 0.048085269 1.5754193e-038
0.056134161 0.028310189 0.04677387 1.5939661e-038
0.057800248 0.029782221 0.045462113 1.1432219e-038
0.059195459 0.031991668 0.043459117 1.75186e-038
0.060837016 0.033463784 0.042146638 1.7977779e-038
0.062733002 0.034198456 0.041524999 1.7978502e-038
0.063819431 0.037145514 0.038829543 1.8346565e-038
0.065696359 0.037880272 0.038207371 1.1339694e-038
0.067020945 0.040089987 0.036202237 1.4290309e-038
0.069157623 0.04008738 0.036271095 1.8071774e-038
0.070457876 0.042297199 0.034265265 1.7611516e-038
0.072867833 0.041557174 0.035025638 1.9361079e-038
0.074430585 0.043029621 0.033710934 1.1983267e-038
0.076269433 0.043764628 0.033087797 7.9266409e-039
0.076944612 0.047449559 0.02969685 1.7150523e-038
0.078761891 0.048184659 0.029073114 9.2235034e-039
0.080278799 0.049657315 0.027757127 9.6826781e-039
0.082380287 0.04965505 0.02782524 1.1607967e-038
0.083881117 0.051127773 0.026508886 1.3181811e-038
0.085977264 0.051125593 0.026576931 4.5453596e-039
0.087462015 0.052598462 0.025260136 4.4531612e-039
0.089244537 0.053333864 0.024635617 7.5780259e-039
0.091332786 0.053331837 0.024703585 1.0620822e-038
0.092793636 0.054804832 0.02338624 1.1993988e-038
0.09456028 0.055540405 0.022761408 1.2550047e-038
0.096002534 0.05701356 0.021443548 1.7156837e-038
0.097434193 0.058486745 0.020125467 1.4852018e-038
0.099179707 0.059222538 0.019500108 2.9830744e-039
0.10059286 0.060695842 0.018181553 2.9845233e-039
0.10265523 0.060694218 0.018249176 8.045876e-039
0.10438525 0.061430149 0.017623579 1.0528662e-038
0.1061101 0.062166154 0.016997892 5.7424623e-039
0.10782984 0.062902264 0.016372075 2.2480457e-039
0.10920375 0.064375907 0.015052633 8.6872517e-040
0.11022374 0.06658718 0.013039229 1.3289803e-039
0.11226617 0.066585943 0.013106694 2.2473254e-039
0.11396015 0.067322284 0.01248041 7.3061712e-039
0.11600053 0.067321189 0.012547983 1.1443062e-038
0.11697877 0.069532752 0.010533554 6.3823932e-039
0.11829807 0.071006842 0.0092128441 5.4636879e-039
0.11924744 0.073218562 0.0071976394 7.4876716e-039
0.12090558 0.073955283 0.006570641 1.4291018e-038
0.12255874 0.074692085 0.0059435712 1.6036597e-038
0.12420701 0.075428963 0.0053164447 1.2175584e-038
0.1258503 0.076165922 0.0046892497 5.2778842e-039
0.12748875 0.076903015 0.0040619541 3.9911278e-039
0.12912229 0.077640131 0.0034346422 5.2779038e-039
0.13112947 0.077639818 0.0035021177 8.6617481e-039
0.13275605 0.078377113 0.00287479 1.0781873e-038
0.13437785 0.079114497 0.0022474164 8.8605251e-039
0.13522163 0.081327051 0.00022974005 5.7377735e-039
0.13799626 0.07985203 0.001687682 4.7243559e-039
0.14431024 0.071739271 0.0094038807 5.2800548e-039
0.037373886 0.010010013 0.06007963 3.9910998e-039
0.038935583 0.012224099 0.058088232 3.8070743e-039
0.041172102 0.012221077 0.058159918 3.8989126e-039
0.0429422 0.01369614 0.056855734 3.6223257e-039
0.044701274 0.015171275 0.055551175 3.8989126e-039
0.046210818 0.017385479 0.053558163 3.7141584e-039
0.04746281 0.02033872 0.05087648 9.7838967e-039
0.048693046 0.02329205 0.048194084 1.4748358e-038
0.050394643 0.024767317 0.046887748 1.6770142e-038
0.052334592 0.025503516 0.046269596 1.6955608e-038
0.055024788 0.024022557 0.047716923 1.7511302e-038
0.056452334 0.026236923 0.045721445 1.5851428e-038
0.057863593 0.028451383 0.043725442 1.3829305e-038
0.059258502 0.030665837 0.041728981 1.733241e-038
0.061425354 0.03066312 0.041798707 1.1340414e-038
0.063592002 0.030660415 0.041868448 1.6503369e-038
0.064954244 0.032875031 0.039871 1.8162171e-038
0.06657099 0.034350615 0.038562212 1.8069975e-038
0.067903407 0.036565278 0.036563903 8.1132014e-039
0.069771908 0.037301816 0.035943776 1.4105538e-038
0.071356103 0.038777523 0.03463405 1.8809325e-038
0.073774152 0.038035944 0.035392556 1.8717142e-038
0.075060531 0.040250793 0.033392943 8.1985517e-039
0.076617643 0.041726638 0.032082476 1.2445307e-038
0.077584684 0.044680744 0.029392192 1.6873581e-038
0.079699539 0.044678427 0.029460689 1.6414047e-038
0.080929302 0.046893492 0.027459437 1.6044177e-038
0.082738355 0.047630381 0.026837753 1.4279107e-038
0.083941281 0.049845602 0.024835698 1.5665652e-038
0.086037338 0.049843468 0.024903798 6.660422e-039
0.087827682 0.050580505 0.024281679 1.3843307e-038
0.089612715 0.051317643 0.023659414 1.7430564e-038
0.091703556 0.05131565 0.023727523 1.7338014e-038
0.093480721 0.052052848 0.023105163 1.503752e-038
0.095252588 0.052790098 0.022482693 1.2919218e-038
0.096380748 0.055005714 0.020478632 1.4670167e-038
0.097814843 0.056482222 0.01916497 1.5128617e-038
0.099562906 0.057219643 0.018541923 5.0037874e-039
0.10130581 0.057957172 0.017918741 3.9028418e-039
0.1030435 0.05869472 0.01729551 1.605164e-038
0.104776 0.059432324 0.01667217 1.6879549e-038
0.10683876 0.059430841 0.016739996 1.6970356e-038
0.10822563 0.060907729 0.015425236 6.2894829e-039
0.10960196 0.062384725 0.014110164 1.1453121e-039
