# .PCD v0.7 - Point Cloud Data file format
VERSION 0.7
FIELDS x y z rgb
SIZE 4 4 4 4
TYPE F F F F
COUNT 1 1 1 1
WIDTH 958
HEIGHT 1
VIEWPOINT 0 0 0 1 0 0 0
POINTS 958
DATA ascii
-0.076661959 0.16653493 0.043502793 1.9817544e-038
-0.074764416 0.16653147 0.043562442 1.9447331e-038
-0.072977185 0.16718286 0.042828325 1.8706191e-038
-0.071082689 0.16717932 0.042887751 1.7781377e-038
-0.069072843 0.1665208 0.043740988 1.5935059e-038
-0.066939533 0.1652073 0.045388281 1.8425674e-039
-0.064432703 0.16192892 0.049418021 7.4057923e-040
-0.15658824 0.15431437 0.052809291 8.5781593e-039
-0.15456314 0.16219087 0.043420799 4.1503308e-039
-0.1526361 0.16415951 0.041121051 1.0421424e-038
-0.1507282 0.16415876 0.041184604 1.0330305e-038
-0.1488221 0.16481434 0.040459964 9.592384e-039
-0.14691252 0.16415702 0.041311376 5.4428716e-039
-0.14501916 0.16546884 0.039798085 6.0810314e-039
-0.14310697 0.16481137 0.040649373 4.6930523e-039
-0.14120203 0.16481021 0.040712275 5.0589663e-039
-0.13928182 0.16415253 0.0415636 4.5065254e-039
-0.13741043 0.16546407 0.040049184 3.493828e-039
-0.13548766 0.16480625 0.040900376 1.4716633e-039
-0.13362999 0.16611767 0.039385337 6.440662e-040
-0.13173085 0.16611612 0.039447531 1.1994092e-039
-0.12986074 0.16677094 0.038720682 1.0157396e-039
-0.12790127 0.16545635 0.040360689 1.0153837e-039
-0.12603404 0.16611102 0.039633535 9.2354397e-040
-0.12417233 0.1667656 0.038906097 1.10901e-039
-0.12231617 0.16742018 0.038178366 6.4803468e-040
-0.1203806 0.16676168 0.039029218 9.2391251e-040
-0.11839453 0.1654467 0.040669583 6.4732562e-040
-0.11639772 0.16413164 0.042310227 5.5512999e-040
-0.11464324 0.1660988 0.040002815 6.4697109e-040
-0.1127985 0.16675296 0.039274253 5.5441953e-040
-0.11095933 0.16740713 0.038545396 4.622239e-040
-0.10900821 0.1667482 0.039396215 6.4697109e-040
-0.10705182 0.16608924 0.040247053 6.4733543e-040
-0.10509015 0.16543019 0.041097961 1.8671321e-040
-0.10319007 0.16542757 0.041158795 8.3136235e-040
-0.10122055 0.1647684 0.042009819 7.3881079e-040
-0.099390343 0.16542211 0.041280173 5.551398e-040
-0.097490713 0.16541931 0.041340753 4.6400916e-040
-0.095746651 0.16672942 0.039820187 1.0168144e-039
-0.093772329 0.16607 0.040671017 1.1621352e-038
-0.091875888 0.16606699 0.040731221 1.6969333e-038
-0.089893751 0.16540745 0.041582171 2.0007398e-038
-0.087994926 0.16540432 0.041642312 1.9176533e-038
-0.086187512 0.16605768 0.040911432 2.0004833e-038
-0.084291726 0.16605446 0.040971339 2.000483e-038
-0.082396112 0.16605118 0.041031156 2.0189562e-038
-0.080600053 0.16670442 0.040299751 1.9820414e-038
-0.078605413 0.1660445 0.041150644 1.9910459e-038
-0.076710321 0.16604108 0.04121026 1.8986012e-038
-0.074922912 0.16669415 0.040478345 1.8893106e-038
-0.073141091 0.16734725 0.039746176 1.7785003e-038
-0.071251959 0.16734371 0.03980542 1.6217716e-038
-0.069131747 0.16602698 0.041448142 2.028416e-039
-0.067000903 0.16471019 0.043091059 8.3242314e-040
-0.064617351 0.16208017 0.046318091 8.3350634e-040
-0.15454872 0.15708369 0.046622463 1.2000706e-039
-0.15260547 0.1590572 0.044329744 4.3354325e-039
-0.15067942 0.16037261 0.042822137 1.1896898e-038
-0.14876242 0.16102982 0.042099997 1.0421405e-038
-0.14684632 0.16102889 0.042163596 9.8682282e-039
-0.14493756 0.16168597 0.041441016 8.021059e-039
-0.14302431 0.1616849 0.041504297 1.2253708e-038
-0.1411238 0.1623418 0.04078123 1.4649715e-038
-0.13921338 0.16234058 0.040844224 1.3728129e-038
-0.13730302 0.16233926 0.040907107 1.4650805e-038
-0.1354136 0.16299596 0.040183291 1.4466794e-038
-0.13350613 0.1629945 0.040245879 1.4559358e-038
-0.13165127 0.1643091 0.038734909 1.4097676e-038
-0.12977839 0.16496556 0.038010295 1.3359045e-038
-0.12787932 0.16496384 0.038072292 1.3816088e-038
-0.12598035 0.16496208 0.038134195 1.2525363e-038
-0.12408148 0.16496024 0.03819602 1.0314849e-038
-0.12226238 0.16627452 0.036683332 8.2890728e-039
-0.12028407 0.1649563 0.038319312 4.1442491e-039
-0.11824974 0.16297995 0.040742837 3.7790693e-039
-0.1163432 0.16297778 0.040804494 2.4883389e-039
-0.11448745 0.16363367 0.040078562 1.6567874e-039
-0.11263727 0.1642895 0.039352339 1.7479082e-039
-0.11079263 0.16494524 0.038625844 3.6749613e-040
-0.10901237 0.16625907 0.037111245 5.5116712e-040
-0.10712003 0.16625658 0.037172005 1.5554413e-043
-0.10516358 0.16559589 0.038020674 1.2359452e-042
-0.10320186 0.16493517 0.038869396 7.3952125e-040
-0.1013742 0.16559058 0.038141895 1.0164711e-039
-0.09947972 0.16558784 0.038202386 6.4732562e-040
-0.09751033 0.1649269 0.039051082 9.2283351e-040
-0.095691249 0.16558217 0.038323101 8.3099241e-040
-0.093797252 0.16557921 0.038383301 1.3855857e-039
-0.091903426 0.16557622 0.038443446 3.728617e-040
-0.089837901 0.1642569 0.040080812 4.2424731e-039
-0.087938979 0.16425377 0.040140964 1.2631838e-038
-0.086131565 0.16490878 0.039412234 1.6776258e-038
-0.084329739 0.16556373 0.038683239 1.8712341e-038
-0.08243674 0.16556045 0.038743004 1.8529349e-038
-0.080543928 0.16555715 0.038802683 1.9818644e-038
-0.078549117 0.16489561 0.039651465 1.8987454e-038
-0.07665395 0.16489218 0.039711073 1.8338873e-038
-0.074758962 0.16488872 0.039770644 1.7416575e-038
-0.072974443 0.16554341 0.039040729 8.2922117e-039
-0.071195535 0.16619809 0.038310532 2.3028042e-039
-0.069075093 0.16487807 0.039948944 5.5583905e-040
-0.066944025 0.16355801 0.041587591 5.5656632e-040
-0.064681195 0.16157965 0.044016324 5.5656632e-040
-0.1545272 0.15261635 0.049014695 1.1085854e-039
-0.15257046 0.15459475 0.046728816 1.7546667e-039
-0.15063006 0.15657315 0.044442292 1.3742217e-038
-0.14870213 0.157232 0.043722674 1.5768712e-038
-0.14676578 0.15591167 0.045354381 1.1063501e-038
-0.14484802 0.15723008 0.043850508 4.9760585e-039
-0.14292106 0.15722899 0.043914262 1.2157161e-038
-0.14100692 0.15788755 0.04319378 1.2708887e-038
-0.13909832 0.15854606 0.042472959 1.3354257e-038
-0.13715875 0.15788497 0.043320559 1.3352093e-038
-0.13525571 0.15854333 0.042599365 1.3537559e-038
-0.13335817 0.15920156 0.041877888 1.3814501e-038
-0.13146614 0.15985972 0.041156165 1.4643907e-038
-0.12957963 0.16051781 0.040434133 1.3722319e-038
-0.12766688 0.16051611 0.040496599 1.3907428e-038
-0.12575421 0.16051432 0.040558968 1.3631918e-038
-0.12387886 0.16117218 0.039836269 1.4275858e-038
-0.12204895 0.16248974 0.03832823 1.5103104e-038
-0.1200595 0.16116823 0.03996028 1.5195654e-038
-0.11810467 0.16050643 0.040807344 1.4830113e-038
-0.11614452 0.15984455 0.041654497 1.4830834e-038
-0.11428059 0.16050205 0.040930938 1.722612e-038
-0.11242224 0.16115949 0.040207133 1.9901581e-038
-0.11051324 0.16115713 0.040268615 1.9816566e-038
-0.10872218 0.16247424 0.038758673 2.0463377e-038
-0.10681888 0.16247174 0.038819771 2.0006747e-038
-0.10491574 0.16246918 0.038880799 1.9915634e-038
-0.10301273 0.16246656 0.038941722 1.8533079e-038
-0.10117961 0.16312362 0.038216561 1.6504422e-038
-0.099352062 0.16378066 0.037491165 1.5120058e-038
-0.097379774 0.16311806 0.038337801 1.2815179e-038
-0.095635846 0.16443473 0.036825806 9.3117558e-039
-0.093741752 0.16443181 0.036886025 7.0065414e-039
-0.091931105 0.16508865 0.036159709 3.0410783e-039
-0.089868046 0.163766 0.037792761 2.7634376e-039
-0.087883033 0.1631031 0.038639419 1.3808689e-039
-0.086075604 0.16375972 0.037912823 1.7492801e-039
-0.084273763 0.16441631 0.037185986 3.0389287e-039
-0.08257436 0.16573271 0.035672016 3.7757623e-039
-0.080786429 0.16638923 0.034944598 3.9605165e-039
-0.078799583 0.16572607 0.035790995 3.1300496e-039
-0.076807499 0.16506281 0.036637448 2.3006546e-039
-0.07491786 0.16505939 0.036696859 1.5634595e-039
-0.073028393 0.16505589 0.036756191 1.8379711e-040
-0.071139105 0.16505232 0.036815442 1.0146494e-039
-0.06925001 0.16504876 0.036874671 6.4732282e-040
-0.067361116 0.16504511 0.036933787 8.3171688e-040
-0.06522999 0.16372173 0.038568173 6.4803188e-040
-0.15658893 0.13887404 0.062257715 8.7621652e-039
-0.15449877 0.14879371 0.050603885 1.2007811e-039
-0.15253469 0.1501157 0.049106266 1.2022048e-039
-0.15058009 0.15276036 0.046045054 1.263623e-038
-0.14863925 0.15275951 0.046109583 1.466273e-038
-0.14668903 0.15143591 0.047737494 9.1284758e-039
-0.14474286 0.1514349 0.047801986 6.9125212e-039
-0.1428069 0.15209515 0.047084473 9.025783e-039
-0.14088929 0.15341669 0.04558469 1.2706735e-038
-0.13896705 0.15407678 0.044866499 1.2338307e-038
-0.13701373 0.1534141 0.045712378 1.3075505e-038
-0.13507603 0.1534127 0.045776062 1.2522687e-038
-0.13316217 0.15407255 0.045057278 1.31677e-038
-0.13130665 0.15605512 0.042773318 1.4089657e-038
-0.12940924 0.15671483 0.042053785 1.2984031e-038
-0.1274855 0.15671313 0.042116616 1.2891838e-038
-0.12552731 0.15604997 0.042962048 1.3353166e-038
-0.12363833 0.15670946 0.042241946 1.4090733e-038
-0.12179491 0.1580303 0.040738653 1.3351013e-038
-0.11983432 0.15736692 0.041583851 1.3904182e-038
-0.11782302 0.15604204 0.043212231 1.4088573e-038
-0.11589724 0.15603986 0.043274544 1.3076226e-038
-0.11402243 0.156699 0.042553496 1.5380751e-038
-0.11215319 0.15735814 0.041832145 1.7317923e-038
-0.11023323 0.15735576 0.041893978 1.87952e-038
-0.10843136 0.15867609 0.040388715 1.8619065e-038
-0.10645542 0.1580122 0.041233771 1.9082578e-038
-0.10453861 0.1580096 0.041295212 1.9085841e-038
-0.10268905 0.15866837 0.04057283 1.9087281e-038
-0.1009149 0.15998849 0.039066333 1.8996522e-038
-0.099006653 0.15998572 0.039127268 1.9088362e-038
-0.097098596 0.1599829 0.039188109 2.0286554e-038
-0.095268629 0.16064149 0.038464714 2.0561708e-038
-0.093444258 0.16129996 0.037741106 2.0652843e-038
-0.091542102 0.16129696 0.03780153 1.5579217e-038
-0.08946795 0.15997101 0.039430637 1.7791208e-038
-0.08747194 0.15930645 0.040275503 1.8346185e-038
-0.085562162 0.15930328 0.040335942 1.7977402e-038
-0.083746776 0.15996149 0.039611675 1.5578892e-038
-0.082130812 0.1619426 0.037317719 1.4008327e-038
-0.080332048 0.16260074 0.036592796 1.2811612e-038
-0.078436531 0.16259739 0.03665252 1.1889304e-038
-0.0765412 0.16259399 0.03671217 1.3271524e-038
-0.074646071 0.1625905 0.036771711 1.5207992e-038
-0.070856363 0.16258346 0.036890674 1.4008398e-038
-0.068845913 0.16191836 0.037735328 1.345848e-038
-0.0670674 0.16257623 0.037009366 1.2255986e-038
-0.064809375 0.16058806 0.039425042 9.5794543e-039
-0.15656981 0.13501352 0.063796982 1.42939e-038
-0.15446368 0.14562073 0.051396459 1.477368e-039
-0.15248813 0.14760906 0.049124055 3.1390305e-039
-0.15052952 0.14893427 0.04763047 6.5538603e-039
-0.14857771 0.14893341 0.047695372 7.746291e-039
-0.14661632 0.14760652 0.049319323 1.1616686e-038
-0.14465168 0.14694248 0.050163921 7.8341132e-039
-0.14270206 0.14760441 0.049448956 9.1186989e-039
-0.14077091 0.14892921 0.047953896 1.2060648e-038
-0.13883501 0.14959094 0.04723832 1.1600387e-038
-0.13690464 0.15025266 0.046522401 1.3259896e-038
-0.13493761 0.1495882 0.047366526 1.3075861e-038
-0.13303663 0.15091273 0.045870014 1.2982945e-038
-0.13112007 0.15157416 0.045153376 1.2982589e-038
-0.12923826 0.15289854 0.043656081 1.2060988e-038
-0.12720774 0.15090778 0.046060678 1.2429771e-038
-0.12523034 0.15024298 0.046904597 1.2798554e-038
-0.12332235 0.15090412 0.046187274 1.2982945e-038
-0.12150002 0.15289119 0.043908194 1.3075495e-038
-0.11952295 0.15222616 0.044751793 1.325917e-038
-0.11758609 0.15222406 0.044814553 1.2982583e-038
-0.11560114 0.15155886 0.045658216 1.289003e-038
-0.11371273 0.15221964 0.044939771 1.4734662e-038
-0.11177626 0.15221733 0.045002233 1.6857297e-038
-0.10989625 0.15287797 0.044283345 1.7598088e-038
-0.10796276 0.15287551 0.044345517 1.8432864e-038
-0.10602941 0.15287296 0.044407587 1.880526e-038
-0.10409623 0.15287039 0.044469584 1.889963e-038
-0.10223037 0.15353081 0.04374982 1.8901433e-038
-0.1003701 0.15419114 0.043029841 1.8811036e-038
-0.098515406 0.15485141 0.042309593 1.8258943e-038
-0.096666276 0.15551165 0.041589122 1.8167105e-038
-0.094978809 0.15749796 0.039304376 1.871813e-038
-0.093065552 0.15749501 0.039365217 1.8070968e-038
-0.091235906 0.15815508 0.038643871 1.5395863e-038
-0.089239545 0.15748894 0.03948668 1.7053599e-038
-0.087326802 0.15748581 0.039547298 1.7329128e-038
-0.085231073 0.15615648 0.041172605 9.0318871e-039
-0.083218977 0.1554901 0.042015754 9.5793099e-039
-0.081589632 0.1574761 0.039728638 1.1422855e-038
-0.079877019 0.15879896 0.038223654 1.2806158e-038
-0.07807301 0.15945873 0.037500925 1.0407281e-038
-0.076169476 0.15945531 0.03756085 1.1146281e-038
-0.074373975 0.16011494 0.036837783 1.6129873e-038
-0.072363004 0.15944833 0.037680447 1.723802e-038
-0.070460044 0.15944478 0.037740167 1.465439e-038
-0.068441324 0.15877798 0.038582992 1.3917549e-038
-0.066654705 0.15943752 0.037859391 1.3915055e-038
-0.06426689 0.15678124 0.04105226 1.262361e-038
-0.15653265 0.13246883 0.06376487 1.2357814e-038
-0.15442215 0.14310239 0.051398806 1.2926194e-039
-0.15244453 0.14443097 0.04991024 3.0468236e-039
-0.15047836 0.14509484 0.049198478 7.7484378e-039
-0.14851338 0.14442939 0.050041109 7.7444806e-039
-0.14654788 0.14442843 0.050106354 1.1522682e-038
-0.14457488 0.1437628 0.050949037 7.0047183e-039
-0.14259648 0.14309704 0.051791761 7.0018022e-039
-0.14063877 0.1437605 0.051079169 1.0035601e-038
-0.13870224 0.14508852 0.049588483 1.0864622e-038
-0.13677669 0.14641649 0.048097268 1.2708889e-038
-0.13481975 0.14641507 0.0481616 1.1693292e-038
-0.13288675 0.14707823 0.047447778 1.2337941e-038
-0.1309593 0.14774132 0.046733662 1.224396e-038
-0.12906665 0.14906897 0.045240931 1.215176e-038
-0.12708893 0.14840256 0.046082862 1.2797472e-038
-0.1250712 0.14707145 0.047703236 1.2890019e-038
-0.12311757 0.14706957 0.047766849 1.3259876e-038
-0.12120419 0.14773226 0.047051735 1.4274384e-038
-0.11929638 0.14839488 0.046336371 1.5104145e-038
-0.11734854 0.14839277 0.046399493 1.5196339e-038
-0.11544911 0.1490553 0.045683619 1.418254e-038
-0.11355524 0.14971772 0.044967499 1.519705e-038
-0.11161322 0.14971539 0.045030143 1.5566547e-038
-0.10967132 0.14971301 0.045092694 1.6762942e-038
-0.10778873 0.15037522 0.04437593 1.833243e-038
-0.10591169 0.1510374 0.043658927 1.7790388e-038
-0.10397568 0.15103477 0.043720994 1.8530114e-038
-0.10197254 0.15036744 0.044562466 1.8624111e-038
-0.10003413 0.1503647 0.044624455 1.8624832e-038
-0.098168567 0.15102664 0.043906737 1.8718106e-038
-0.096308582 0.15168846 0.043188702 1.871775e-038
-0.094376087 0.15168555 0.043250274 1.9177642e-038
-0.092524573 0.15234734 0.042531807 1.7609962e-038
-0.090595126 0.15234432 0.042593107 1.6221292e-038
-0.08849337 0.15101175 0.044214506 1.6957072e-038
-0.086558864 0.15100861 0.044275813 8.9346272e-039
-0.084532872 0.15034066 0.045117285 8.2874767e-039
-0.082596011 0.15033737 0.045178499 1.1511085e-038
-0.080853492 0.15166354 0.043678839 1.4373836e-038
-0.078922436 0.15166017 0.04373974 1.7600686e-038
-0.077196538 0.15298629 0.042239357 1.6954606e-038
-0.075166069 0.15231808 0.043080635 1.667802e-038
-0.073454097 0.15364408 0.041579716 1.2437728e-038
-0.07142131 0.15297577 0.042420942 1.3172402e-038
-0.06960994 0.15363693 0.041700397 1.5481213e-038
-0.067572139 0.15296853 0.042541653 1.6125861e-038
-0.065647848 0.15296486 0.042601921 1.6216982e-038
-0.062630795 0.14697802 0.049692877 1.5848568e-038
-0.1564952 0.12991747 0.063723929 4.1509866e-039
-0.15439217 0.13924474 0.052942257 1.2926222e-039
-0.15240368 0.1405766 0.05145837 1.5695636e-039
-0.1504266 0.14124209 0.050749086 8.9466125e-039
-0.14845277 0.14124125 0.050814752 1.6321531e-038
-0.14646912 0.13990778 0.052430868 6.9146975e-039
-0.1444823 0.13924049 0.053271864 5.5299525e-039
-0.14249015 0.1385731 0.054112896 5.2526146e-039
-0.14054494 0.14057074 0.051851779 8.4729638e-039
-0.1386161 0.14256836 0.049589977 1.0313971e-038
-0.13670363 0.14456585 0.047327533 1.1235562e-038
-0.13474385 0.14456445 0.047391962 1.1786211e-038
-0.13276023 0.14389667 0.04823222 1.2339019e-038
-0.13079791 0.14389509 0.048296519 1.2336512e-038
-0.12889442 0.14522605 0.046808466 1.3811636e-038
-0.12693775 0.14522433 0.046872396 1.5749144e-038
-0.12494637 0.14455618 0.047712512 1.5840985e-038
-0.1229872 0.14455429 0.047776312 1.5841709e-038
-0.12102813 0.14455232 0.047839981 1.6211207e-038
-0.11911213 0.14521661 0.047126986 1.6765456e-038
-0.11720167 0.14588082 0.046413772 1.6212634e-038
-0.11529678 0.14654493 0.045700245 1.7411534e-038
-0.11334636 0.1465427 0.045763269 1.7226068e-038
-0.1113423 0.14587407 0.046603099 1.7410457e-038
-0.10938945 0.14587167 0.046666 1.6948044e-038
-0.10755517 0.14720184 0.045174692 1.7226077e-038
-0.10579381 0.14919831 0.042905703 1.7324365e-038
-0.10385497 0.14919573 0.042967908 1.8802366e-038
-0.10184894 0.14852674 0.043807339 1.8530114e-038
-0.099837653 0.1478577 0.044646841 1.8716664e-038
-0.097966641 0.14852124 0.04393144 1.8625189e-038
-0.09610121 0.14918473 0.043215774 1.8348245e-038
-0.094241373 0.14984816 0.042499822 1.8255686e-038
-0.09222535 0.14917883 0.043339141 1.6409984e-038
-0.090371273 0.14984217 0.042622872 1.6401742e-038
-0.088177532 0.14784001 0.045018077 1.0494749e-038
-0.086234793 0.14783683 0.045079637 1.086175e-038
-0.08429224 0.14783362 0.045141142 1.8705228e-038
-0.082349889 0.14783037 0.045202568 1.9260924e-038
-0.080602005 0.14915979 0.043707348 1.8431887e-038
-0.078565598 0.14849001 0.044546779 1.8249659e-038
-0.076831646 0.14981939 0.043051012 1.8707398e-038
-0.074687615 0.14848313 0.044668935 1.8614483e-038
-0.072748922 0.14847961 0.044729907 1.879852e-038
-0.070699729 0.14780965 0.045569509 1.9074379e-038
-0.068872154 0.14847243 0.04485162 1.7138613e-038
-0.066934049 0.14846876 0.044912383 1.6585055e-038
-0.064877339 0.14779866 0.045752052 1.6123714e-038
-0.15646601 0.12669139 0.064446911 2.9513826e-039
-0.15435572 0.13604163 0.053695504 1.75288e-039
-0.15236224 0.13670887 0.052989066 1.8465008e-039
-0.1503738 0.13804395 0.051509295 1.1343702e-038
-0.148394 0.13871104 0.050802153 1.6690312e-038
-0.14640462 0.13737427 0.052414179 8.0217653e-039
-0.14440446 0.13603738 0.054026514 6.8224906e-039
-0.14240393 0.13536836 0.054865699 4.7923763e-039
-0.14043751 0.13670301 0.053384714 6.1723932e-039
-0.13849792 0.13870555 0.051129684 9.3019846e-039
-0.13655609 0.14004005 0.049647655 9.8529905e-039
-0.1346039 0.1407066 0.048938815 1.2800714e-038
-0.13263324 0.14070509 0.049003504 1.4090364e-038
-0.13068937 0.14137146 0.048294224 1.5381446e-038
-0.1287805 0.14270565 0.046810675 1.5750221e-038
-0.12688255 0.14403982 0.04532665 1.6673249e-038
-0.12485611 0.14270212 0.046938781 1.6029306e-038
-0.12285652 0.1420323 0.0477769 1.6675382e-038
-0.1208919 0.14203033 0.047840785 1.7228215e-038
-0.11901343 0.14336418 0.04635575 1.7690272e-038
-0.11705449 0.14336208 0.046419259 1.7230369e-038
-0.11519257 0.14469582 0.044933446 1.732293e-038
-0.11329048 0.14536154 0.044221934 1.7968285e-038
-0.11123235 0.14402331 0.045834359 1.7415468e-038
-0.10927668 0.14402092 0.045897376 1.6861938e-038
-0.10743973 0.14535438 0.044410422 1.7506956e-038
-0.10555176 0.14601982 0.043698076 1.6493885e-038
-0.1036047 0.14601722 0.043760542 1.787394e-038
-0.10159034 0.14534661 0.044598095 1.7971179e-038
-0.099640876 0.14534388 0.044660471 1.8714861e-038
-0.097691551 0.1453411 0.044722747 1.8624466e-038
-0.095817968 0.14600621 0.044009488 1.9451347e-038
-0.093793444 0.14533532 0.04484703 1.8159888e-038
-0.091844663 0.14533234 0.044909053 1.5667388e-038
-0.089812361 0.14466128 0.045746669 9.7636578e-039
-0.087688416 0.14332214 0.047360223 1.086536e-038
-0.085821152 0.143987 0.046646312 1.9165855e-038
-0.084051304 0.14531982 0.045156263 1.6676936e-038
-0.082103424 0.14531654 0.045217853 1.8615206e-038
-0.08035022 0.1466493 0.043727089 1.6403231e-038
-0.07820826 0.14530984 0.045340825 1.6864927e-038
-0.076466285 0.14664251 0.043849561 1.7325908e-038
-0.07420852 0.14463489 0.04623989 1.6034449e-038
-0.072258919 0.14463137 0.046301231 1.8246424e-038
-0.070198745 0.14395973 0.047139026 1.760033e-038
-0.068473808 0.14529221 0.045647006 1.6216322e-038
-0.066643722 0.14595658 0.044931307 1.7229747e-038
-0.06446255 0.14461677 0.046545818 1.5661684e-038
-0.1588093 0.10336895 0.088202693 1.4846341e-038
-0.15643638 0.12345523 0.065156743 7.9313437e-039
-0.15432462 0.13215894 0.055206299 1.5684888e-039
-0.15232021 0.13282779 0.054502346 1.5699181e-039
-0.15032093 0.1341662 0.053027261 5.0733352e-039
-0.14833255 0.13550444 0.0515517 9.6823838e-039
-0.14633985 0.13483396 0.052388705 1.244751e-038
-0.14432615 0.13282423 0.05476803 4.8881775e-039
-0.1423278 0.13282312 0.054834172 4.5186621e-039
-0.14035594 0.1341611 0.05335762 6.1723918e-039
-0.13841102 0.13616857 0.05110921 8.4740358e-039
-0.13650109 0.13884549 0.048088759 1.3540095e-038
-0.13452749 0.13884409 0.048153665 1.4920845e-038
-0.13257806 0.13951218 0.047446769 1.4736446e-038
-0.13058051 0.138841 0.048283122 1.6119729e-038
-0.12866624 0.14017853 0.046804029 1.5659814e-038
-0.12673068 0.1408464 0.04609644 1.7227496e-038
-0.12469581 0.13950542 0.047704488 1.7783163e-038
-0.12268786 0.13883394 0.048540812 1.7876433e-038
-0.12075536 0.13950159 0.047832757 1.7600579e-038
-0.1188715 0.14083874 0.046352223 1.7877526e-038
-0.11695282 0.1415062 0.045643538 1.7509464e-038
-0.11499118 0.14150402 0.04570704 1.8062638e-038
-0.11302968 0.1415018 0.04577047 1.8062638e-038
-0.11096042 0.14016026 0.047378968 1.8339225e-038
-0.10905045 0.14082748 0.046669666 1.8430347e-038
-0.10714603 0.1414946 0.04596005 1.7599517e-038
-0.10530928 0.14283134 0.044477299 1.7508037e-038
-0.10328916 0.14215909 0.045313038 1.6863388e-038
-0.10126377 0.14148682 0.046148803 1.7598076e-038
-0.099303342 0.14148408 0.046211533 1.7142128e-038
-0.097416021 0.14215091 0.04550096 1.8619065e-038
-0.095458634 0.14214805 0.045563415 1.8620149e-038
-0.093579777 0.14281479 0.044852369 1.7328331e-038
-0.091625467 0.14281181 0.044914566 1.6496074e-038
-0.089671336 0.14280877 0.044976678 8.8373911e-039
-0.087630898 0.14213599 0.045812398 1.9628266e-038
-0.085763626 0.14280252 0.04510067 1.5294712e-038
-0.083718158 0.14212961 0.045936398 1.7230827e-038
-0.081762053 0.14212632 0.045998268 1.833754e-038
-0.079903483 0.1427927 0.045286033 1.732411e-038
-0.077850468 0.14211963 0.046121795 1.7786166e-038
-0.07599771 0.14278589 0.045409225 1.7232992e-038
-0.07383424 0.14144304 0.047019266 1.6494707e-038
-0.071876429 0.14143948 0.04708083 1.7784366e-038
-0.069918819 0.14143592 0.047142375 1.7415584e-038
-0.068188563 0.14277169 0.045654763 1.5940099e-038
-0.066353068 0.14343771 0.044941403 1.8337542e-038
-0.064166255 0.14209457 0.046551846 1.7967665e-038
-0.1587519 0.10208705 0.086529776 1.4753781e-038
-0.15639789 0.12088025 0.065084986 7.6558176e-039
-0.15428151 0.12960531 0.055162609 1.5692063e-039
-0.15227459 0.12960462 0.055229582 1.6610347e-039
-0.1502669 0.13161746 0.05299041 3.3223413e-039
-0.14827555 0.13363025 0.050750539 8.0228737e-039
-0.14628509 0.13362932 0.050816648 1.2357119e-038
-0.14425528 0.13027227 0.054727465 4.8885376e-039
-0.14225136 0.13027114 0.054793768 3.7818173e-039
-0.14024749 0.13026997 0.05486 7.2758639e-039
-0.13829176 0.13228238 0.052618422 1.2802533e-038
-0.13633369 0.13362344 0.051145505 1.4369104e-038
-0.1343651 0.13429323 0.050441563 1.5197421e-038
-0.13242622 0.13563421 0.048967801 1.6212634e-038
-0.13047139 0.13630384 0.04826317 1.6397379e-038
-0.12855169 0.13764463 0.046788614 1.741404e-038
-0.12657833 0.13764291 0.046853095 1.7876446e-038
-0.12457007 0.13696986 0.047687307 1.7786408e-038
-0.12259424 0.13696799 0.047751684 1.843142e-038
-0.12057807 0.13629481 0.048585959 1.7603809e-038
-0.11868609 0.13763523 0.047109976 1.8249549e-038
-0.11675923 0.1383044 0.046403714 1.8250253e-038
-0.11478934 0.13830221 0.046467487 1.8066938e-038
-0.11281957 0.13829997 0.046531178 1.8159134e-038
-0.11084995 0.13829765 0.04659475 1.8250609e-038
-0.10893723 0.1389665 0.045887675 1.8342452e-038
-0.10703006 0.13963529 0.045180328 1.8249181e-038
-0.10500416 0.13896152 0.046014167 1.8341024e-038
-0.10297301 0.13828766 0.046848085 1.7601662e-038
-0.10100417 0.138285 0.046911187 1.8154482e-038
-0.099105783 0.13895354 0.046203218 1.7140698e-038
-0.097139992 0.13895074 0.046266045 1.723183e-038
-0.095325813 0.14029041 0.044786472 1.7692452e-038
-0.093287364 0.13961622 0.045620192 1.5665225e-038
-0.091405965 0.14028452 0.044911344 1.3171302e-038
-0.089530163 0.14095277 0.044202227 1.8058773e-038
-0.08765997 0.14162099 0.04349282 1.6770922e-038
-0.085706107 0.14161785 0.043554779 1.8615202e-038
-0.083660461 0.14094332 0.044388387 1.8430811e-038
-0.081609584 0.14026876 0.045222055 1.806275e-038
-0.079553507 0.13959414 0.046055794 1.6403949e-038
-0.077592313 0.13959074 0.046117689 1.8338616e-038
-0.075734116 0.14025864 0.045407519 1.6956402e-038
-0.073564999 0.1389125 0.047013387 1.7415584e-038
-0.071709923 0.13958029 0.046302982 1.8245345e-038
-0.069749534 0.1395767 0.046364605 1.4741911e-038
-0.067903005 0.14024442 0.045653809 1.6954962e-038
-0.065945752 0.14024074 0.045715194 1.8705957e-038
-0.063631527 0.13822301 0.048094124 1.8525159e-038
-0.15871663 0.099459216 0.086388953 1.4476484e-038
-0.1563758 0.11695276 0.066536956 7.1948394e-039
-0.15424936 0.12569919 0.05664283 2.396453e-039
-0.15222561 0.1270442 0.055177301 1.5691936e-039
-0.15021238 0.12973484 0.052178182 1.1343699e-038
-0.14821589 0.13107973 0.05071146 1.3831187e-038
-0.14620937 0.12973306 0.052311227 6.6406497e-039
-0.14419205 0.12838635 0.053911209 3.8743871e-039
-0.14218526 0.12838528 0.053977661 5.2573019e-039
-0.14020531 0.12972978 0.052509993 1.1882741e-038
-0.13822021 0.13040137 0.051808946 1.3721596e-038
-0.13622181 0.13040003 0.051874794 1.464425e-038
-0.13422351 0.13039862 0.051940512 1.6119729e-038
-0.13227376 0.13174286 0.050471403 1.6859434e-038
-0.13033499 0.13308701 0.049001873 1.7137098e-038
-0.1283775 0.13375826 0.04829935 1.723072e-038
-0.12642555 0.13442941 0.0475966 1.7877526e-038
-0.12444404 0.13442759 0.047661252 1.7879321e-038
-0.12246265 0.13442571 0.047725804 1.8248458e-038
-0.12048138 0.13442376 0.047790255 1.7696728e-038
-0.11854347 0.13509461 0.047086649 1.7789644e-038
-0.11656518 0.1350925 0.047150794 1.760596e-038
-0.11453836 0.13441746 0.047983009 1.7884331e-038
-0.11250624 0.13374232 0.048815269 1.7883979e-038
-0.11057704 0.13441288 0.048110999 1.7515551e-038
-0.10871022 0.13575624 0.046638012 1.7975463e-038
-0.10673534 0.1357538 0.04670161 1.7881839e-038
-0.10476065 0.13575126 0.046765089 1.8526134e-038
-0.10278612 0.13574867 0.046828471 1.8525415e-038
-0.10074409 0.1350731 0.047660518 1.8248475e-038
-0.098837547 0.13574328 0.046954963 1.8430358e-038
-0.096936591 0.1364134 0.046249144 1.7692438e-038
-0.09496545 0.13641053 0.046312079 1.6861972e-038
-0.092994496 0.13640761 0.04637491 1.6492837e-038
-0.09110494 0.1370776 0.045668442 1.2252204e-038
-0.089304909 0.13842042 0.044192493 1.944423e-038
-0.087429278 0.13909027 0.043485459 1.5295084e-038
-0.085559249 0.13976005 0.042778164 1.8246424e-038
-0.083510719 0.13908391 0.043609686 1.8708477e-038
-0.081456982 0.13840771 0.044441309 1.7418458e-038
-0.079300538 0.1370585 0.046042711 1.5942971e-038
-0.07733383 0.13705511 0.046104811 1.8338616e-038
-0.075264439 0.13637868 0.046936736 1.8338616e-038
-0.073295437 0.1363752 0.04699878 1.7416663e-038
-0.071434952 0.13704467 0.046290666 1.833754e-038
-0.069469079 0.13704111 0.046352491 1.5940454e-038
-0.067389697 0.13636446 0.047184471 1.677057e-038
-0.065421522 0.13636078 0.047246229 1.8705957e-038
-0.15870303 0.095475674 0.087767303 1.4569035e-038
-0.15632828 0.1150354 0.065679081 5.7193604e-039
-0.15419438 0.1244777 0.055048753 1.8432876e-039
-0.15217066 0.125826 0.053587519 1.66282e-039
-0.1501577 0.12784874 0.051361367 1.2082696e-038
-0.14815591 0.12852238 0.050663576 1.3646073e-038
-0.14613836 0.126498 0.053023785 5.4406646e-039
-0.14412065 0.12582245 0.053855136 4.7941728e-039
-0.14212978 0.12717037 0.0523922 9.4896338e-039
-0.14014985 0.12851818 0.050928857 1.3539e-038
-0.13814852 0.12851694 0.050994918 1.4643541e-038
-0.13610949 0.1271666 0.052590892 1.6209418e-038
-0.1341029 0.12716518 0.052656889 1.7227495e-038
-0.13214502 0.1285127 0.051192399 1.667575e-038
-0.13019814 0.12986016 0.049727391 1.6771528e-038
-0.12826218 0.13120753 0.048261959 1.741798e-038
-0.12633723 0.13255486 0.04679605 1.7971154e-038
-0.12435289 0.13255306 0.046860784 1.7788558e-038
-0.12240653 0.13322569 0.046159819 1.8249536e-038
-0.12034392 0.13187468 0.047755789 1.7420849e-038
-0.11840055 0.13254721 0.047054473 1.7790706e-038
-0.11632464 0.13119604 0.048650678 1.7791784e-038
-0.11443301 0.13254294 0.047183063 1.7699585e-038
-0.11239798 0.13186613 0.048013341 1.7883979e-038
-0.11046603 0.13253839 0.047311284 1.7607399e-038
-0.10836899 0.13118689 0.048907787 1.8068377e-038
-0.10644005 0.13185896 0.048205465 1.7790371e-038
-0.10451671 0.132531 0.047502842 1.7790726e-038
-0.10259894 0.13320296 0.046799984 1.7698884e-038
-0.1005513 0.13252576 0.047630083 1.7513777e-038
-0.098709747 0.13387212 0.046160169 1.7510553e-038
-0.096732907 0.13386934 0.046223383 1.7970102e-038
-0.094680361 0.13319193 0.047053371 1.750805e-038
-0.092701167 0.13318901 0.047116496 1.6400639e-038
-0.090803459 0.13386059 0.046412494 1.3538623e-038
-0.088995352 0.1352067 0.044941105 1.7504887e-038
-0.087024845 0.13520361 0.045003716 1.5293284e-038
-0.085233398 0.13654965 0.043531593 1.889179e-038
-0.083084434 0.13519725 0.04512867 1.8430811e-038
-0.08101967 0.13451941 0.045958515 1.6496502e-038
-0.078852162 0.13316689 0.047555983 1.5850412e-038
-0.076974794 0.13383812 0.046850812 1.806203e-038
-0.075000085 0.13383469 0.04691311 1.6586899e-038
-0.072919905 0.13315661 0.047743164 1.6493628e-038
-0.071051292 0.13382769 0.047037493 1.833682e-038
-0.069188319 0.13449872 0.046331592 1.5756063e-038
-0.067217156 0.13449509 0.046393536 1.7231547e-038
-0.065246217 0.13449143 0.046455409 1.7510296e-038
-0.15863426 0.094859421 0.085318819 1.4476484e-038
-0.15628061 0.11311457 0.064816661 4.0587769e-039
-0.15415588 0.12122759 0.055740647 1.8432904e-039
-0.152124 0.12257922 0.05428395 1.2929739e-039
-0.15010297 0.12460685 0.052064557 5.2580936e-039
-0.14809297 0.12528217 0.051369146 9.4079648e-039
-0.14606692 0.12325282 0.053723238 9.5894651e-039
-0.14406514 0.12460408 0.052265137 4.6958464e-039
-0.14206347 0.12527916 0.051569127 1.1972782e-038
-0.14008084 0.12663026 0.050110165 1.4919772e-038
-0.13807666 0.12662901 0.050176315 1.5657324e-038
-0.13605359 0.12595156 0.051005244 1.6580707e-038
-0.1340252 0.12527399 0.051834222 1.6675752e-038
-0.13204023 0.12594864 0.051137164 1.7322196e-038
-0.13008794 0.12729937 0.049676698 1.7047759e-038
-0.12811676 0.12797387 0.048978984 1.7510176e-038
-0.12615113 0.12864834 0.048280947 1.7695642e-038
-0.12422631 0.12999886 0.04681927 1.7880753e-038
-0.12223653 0.12999699 0.04688412 1.8158414e-038
-0.12020618 0.12931888 0.047712453 1.7698513e-038
-0.11817054 0.12864071 0.048540875 1.7514474e-038
-0.1161296 0.1279624 0.049369402 1.7883976e-038
-0.11418104 0.12863643 0.048670206 1.7607392e-038
-0.11223804 0.12931035 0.047970794 1.8068016e-038
-0.11024637 0.12930804 0.04803513 1.7238617e-038
-0.10814091 0.12795326 0.049627632 1.7699962e-038
-0.10614412 0.1279508 0.049691945 1.7423375e-038
-0.10427228 0.12930067 0.048227534 1.7883999e-038
-0.10241146 0.13065046 0.046762746 1.806839e-038
-0.1003582 0.12997159 0.047590874 1.7513781e-038
-0.098370217 0.12996888 0.047654554 1.7881486e-038
-0.096528895 0.13131852 0.04618882 1.8247043e-038
-0.094470747 0.13063943 0.0470169 1.7969736e-038
-0.092407368 0.12996033 0.047845028 1.7688134e-038
-0.090420127 0.12995735 0.047908343 1.1970574e-038
-0.088517159 0.13063052 0.047206588 1.4739018e-038
-0.086533003 0.13062742 0.047269654 1.7138271e-038
-0.084638566 0.13130054 0.046567436 1.7140794e-038
-0.0825653 0.13062106 0.04739552 1.8338616e-038
-0.080581754 0.13061778 0.047458313 1.741738e-038
-0.078500777 0.12993823 0.048286468 1.6403228e-038
-0.076615274 0.13061109 0.047583722 1.8246421e-038
-0.074632362 0.13060766 0.047646292 1.7599975e-038
-0.072543889 0.12992793 0.048474472 1.7599975e-038
-0.07055869 0.12992439 0.048536997 1.8060233e-038
-0.068796068 0.13127337 0.04706772 1.621632e-038
-0.066702813 0.13059345 0.047895912 1.7784002e-038
-0.064954177 0.13194236 0.046426088 1.7602492e-038
-0.15854397 0.09560176 0.081354827 1.3831114e-038
-0.15622468 0.11186799 0.063189849 2.5829378e-039
-0.15410069 0.12000076 0.05413961 2.0276817e-039
-0.15207687 0.11932231 0.054967269 1.0153262e-039
-0.15004779 0.12135492 0.052754566 3.1372438e-039
-0.14802685 0.12135409 0.052821811 7.7491665e-039
-0.14600593 0.12135316 0.052888952 1.254079e-038
-0.14397693 0.12067433 0.053716388 4.7934525e-039
-0.14197524 0.12202885 0.052262444 1.2895083e-038
-0.13994366 0.1213499 0.053089716 1.436732e-038
-0.13793936 0.12202644 0.052395787 1.5750595e-038
-0.13592154 0.1220251 0.05246228 1.7043824e-038
-0.13394733 0.12337926 0.051007032 1.6769019e-038
-0.13195962 0.12405561 0.050312188 1.7138881e-038
-0.12997742 0.12473184 0.049617112 1.7510173e-038
-0.12797087 0.1247302 0.04968283 1.8063347e-038
-0.12602967 0.12608406 0.048226077 1.7419775e-038
-0.12406411 0.12676007 0.047530137 1.7512691e-038
-0.12210411 0.12743606 0.046833903 1.760596e-038
-0.12006813 0.12675628 0.04766034 1.7698513e-038
-0.11807034 0.12675425 0.047725249 1.7514122e-038
-0.1160265 0.12607434 0.048551701 1.7883622e-038
-0.11402626 0.12607218 0.04861651 1.7514485e-038
-0.1120778 0.12674776 0.047919434 1.7237898e-038
-0.11008058 0.12674546 0.047983978 1.7146421e-038
-0.10802647 0.12606524 0.048810359 1.7238627e-038
-0.10602686 0.1260628 0.048874784 1.8068387e-038
-0.10408987 0.1267381 0.048176963 1.7976192e-038
-0.10222368 0.12809122 0.046716608 1.7883996e-038
-0.1002327 0.12808858 0.046780493 1.7975117e-038
-0.098241903 0.12808587 0.046844278 1.7421583e-038
-0.096177958 0.12740524 0.047670443 1.7787849e-038
-0.094184808 0.1274024 0.047734145 1.8247029e-038
-0.09219186 0.12739947 0.047797721 1.7415134e-038
-0.090280555 0.12807435 0.047098488 1.4648202e-038
-0.088290676 0.12807134 0.047161832 1.0223205e-038
-0.086301014 0.12806825 0.047225099 1.6309592e-038
-0.084311545 0.12806511 0.047288273 1.6678741e-038
-0.082322285 0.12806189 0.04735136 1.7970554e-038
-0.080238208 0.12738076 0.048177544 1.6680536e-038
-0.078246661 0.12737744 0.048240557 1.6403228e-038
-0.076255314 0.12737407 0.048303496 1.8062032e-038
-0.074470453 0.12872642 0.046839476 1.5849337e-038
-0.072379105 0.12804505 0.047665626 1.732339e-038
-0.070282564 0.12736364 0.048491865 1.7692893e-038
-0.068292096 0.12736005 0.048554502 1.5197848e-038
-0.066415802 0.12803435 0.04785331 1.6859886e-038
-0.06454514 0.1287086 0.047151867 1.8429723e-038
-0.15849715 0.093636096 0.080433801 1.4014783e-038
-0.15619288 0.10858295 0.063835867 7.1001733e-039
-0.15406682 0.11605603 0.055569425 2.0276789e-039
-0.15202932 0.11605535 0.055637456 1.4763044e-039
-0.14999218 0.11809289 0.05343147 5.3524164e-039
-0.14796576 0.11877148 0.052740961 9.0402374e-039
-0.14593928 0.11877055 0.052808288 5.4388611e-039
-0.14391287 0.11876956 0.052875515 8.295778e-039
-0.14190847 0.12012735 0.051425949 1.3815941e-038
-0.13987395 0.11944673 0.052251231 1.5473299e-038
-0.13785051 0.11944549 0.05231804 1.7228216e-038
-0.13580801 0.11876473 0.053143311 1.6769019e-038
-0.13382569 0.12012222 0.051692594 1.6494586e-038
-0.13182975 0.12080017 0.051000234 1.723251e-038
-0.12983938 0.12147804 0.050307564 1.7234309e-038
-0.12782454 0.12147641 0.050373584 1.7880042e-038
-0.12584254 0.12215413 0.049680442 1.7788925e-038
-0.12386606 0.12283182 0.048986971 1.7881119e-038
-0.12185703 0.12282996 0.049052492 1.7698159e-038
-0.11988895 0.12350747 0.048358608 1.7237532e-038
-0.11788289 0.12350545 0.048423812 1.8159134e-038
-0.11587697 0.12350337 0.048488926 1.7698876e-038
-0.11377323 0.12214226 0.050073102 1.7698876e-038
-0.11181387 0.12281953 0.049378511 1.7330459e-038
-0.10986008 0.12349667 0.048683673 1.7791437e-038
-0.10791189 0.12417378 0.047988571 1.7146079e-038
-0.10584962 0.12349185 0.048813008 1.7976192e-038
-0.10390717 0.12416881 0.04811753 1.7792875e-038
-0.10190506 0.12416624 0.048181873 1.7885071e-038
-0.10003909 0.12552255 0.046725772 1.797761e-038
-0.097972058 0.12484036 0.047550011 1.8068376e-038
-0.095973209 0.12483758 0.047613982 1.8250269e-038
-0.093974523 0.12483475 0.047677886 1.778857e-038
-0.091976047 0.12483184 0.04774167 1.7604179e-038
-0.090059288 0.12550838 0.047044776 1.695667e-038
-0.087979652 0.12482587 0.047869015 1.7787198e-038
-0.08606872 0.12550229 0.047171779 1.631285e-038
-0.084073737 0.12549914 0.047235142 1.612629e-038
-0.082171336 0.12617549 0.046537425 1.7696131e-038
-0.080179483 0.12617224 0.046600543 1.7419544e-038
-0.078090042 0.12548938 0.047424745 1.741918e-038
-0.075995386 0.12480649 0.048249006 1.7602492e-038
-0.073998742 0.12480308 0.048312068 1.7602495e-038
-0.072002344 0.12479959 0.048375044 1.7234432e-038
-0.070006132 0.12479609 0.048437972 1.7234434e-038
-0.068010166 0.12479252 0.048500802 1.6863852e-038
-0.065786324 0.12342979 0.050086841 1.6859886e-038
-0.06390214 0.12410568 0.049387995 1.280219e-038
-0.15842882 0.093029045 0.077997334 1.4291372e-038
-0.15614469 0.10664997 0.062957607 5.4410065e-039
-0.15401658 0.11414114 0.05471487 1.6610558e-039
-0.15197878 0.11345942 0.055538729 1.477019e-039
-0.14993629 0.1155019 0.05333937 6.7342719e-039
-0.14789857 0.11481994 0.054163039 1.0146942e-038
-0.14586671 0.11550014 0.053474717 4.7895288e-039
-0.14383201 0.11549914 0.053542215 9.9491827e-039
-0.14183053 0.11754127 0.05134112 1.4459147e-038
-0.13980414 0.11754011 0.051408138 1.538146e-038
-0.13776134 0.1168578 0.05223139 1.6768316e-038
-0.13573241 0.11685647 0.052298278 1.6308044e-038
-0.13374738 0.11821722 0.050852008 1.6772242e-038
-0.13174871 0.11889687 0.050161853 1.7141742e-038
-0.12975556 0.11957639 0.049471445 1.6957365e-038
-0.12767777 0.11821255 0.051051177 1.8063729e-038
-0.12575309 0.12025414 0.048846677 1.7234686e-038
-0.12373838 0.12025237 0.048912495 1.7787863e-038
-0.12172379 0.12025049 0.04897818 1.7788925e-038
-0.11979116 0.12161081 0.047529459 1.7329376e-038
-0.11786952 0.12297098 0.046080299 1.7790351e-038
-0.11581985 0.12228781 0.046902675 1.7145702e-038
-0.11366677 0.12024233 0.049239993 1.7699242e-038
-0.11160111 0.119559 0.050062686 1.7514493e-038
-0.10963914 0.1202378 0.0493703 1.7699605e-038
-0.10773998 0.12159769 0.047919895 1.696204e-038
-0.10573199 0.12159526 0.047984626 1.7792158e-038
-0.10366154 0.1209116 0.048807159 1.7516644e-038
-0.10165118 0.12090904 0.048871789 1.8069818e-038
-0.099777117 0.12226868 0.04742023 1.8162357e-038
-0.097772539 0.12226597 0.04748448 1.7792865e-038
-0.095768146 0.12226321 0.047548659 1.7882916e-038
-0.093687758 0.12157923 0.048371021 1.8064801e-038
-0.091838844 0.12293862 0.046918362 1.7604899e-038
-0.089919344 0.12361681 0.046223734 1.6588608e-038
-0.087836839 0.12293267 0.047045931 1.6773771e-038
-0.08583612 0.1229296 0.047109585 1.7146577e-038
-0.083835632 0.12292646 0.047173139 1.7145131e-038
-0.082112707 0.1249668 0.044960182 1.3917192e-038
-0.079930425 0.1236012 0.046541151 1.5022818e-038
-0.078031145 0.12427908 0.045845415 1.6774891e-038
-0.07583575 0.12291339 0.047426615 1.7143317e-038
-0.073939614 0.12359115 0.046730638 1.6774536e-038
-0.071731105 0.12222534 0.048312109 1.6958211e-038
-0.069729418 0.12222183 0.048375215 1.6036974e-038
-0.067727946 0.12221828 0.04843827 1.68671e-038
-0.065498456 0.12085223 0.050020251 1.8436232e-038
-0.063258357 0.11948617 0.051602457 1.5114663e-038
-0.15838186 0.091059655 0.077071458 1.401514e-038
-0.15609635 0.1047135 0.062074784 3.3187358e-039
-0.15397137 0.11154006 0.05460925 1.2015209e-039
-0.15192546 0.11153939 0.054677576 1.384822e-039
-0.1498801 0.11290406 0.053238466 1.5709789e-039
-0.14784268 0.11358595 0.05255264 8.5785558e-039
-0.14580508 0.11358503 0.052620351 1.0415589e-038
-0.14377593 0.1142668 0.051933996 1.142213e-038
-0.14176342 0.11563114 0.050493348 1.4919754e-038
-0.13974799 0.11631271 0.049806375 1.5290323e-038
-0.137705 0.11562877 0.050627504 1.6582847e-038
-0.13565668 0.11494473 0.051448699 1.6768668e-038
-0.13366894 0.11630878 0.050006829 1.723286e-038
-0.13164279 0.11630732 0.050073437 1.6865155e-038
-0.12961675 0.11630577 0.050139926 1.7417623e-038
-0.12759081 0.11630414 0.05020633 1.778785e-038
-0.12563066 0.11766794 0.048763115 1.695881e-038
-0.12361039 0.11766617 0.048829105 1.7329022e-038
-0.12159025 0.11766432 0.048895013 1.7697803e-038
-0.11961123 0.11834512 0.048205797 1.7697803e-038
-0.11763777 0.11902587 0.047516335 1.7698159e-038
-0.11562346 0.1190238 0.047581747 1.760668e-038
-0.11351103 0.11765616 0.049157593 1.7422292e-038
-0.1114916 0.11765395 0.049222998 1.7883986e-038
-0.10947231 0.11765166 0.049288299 1.7423021e-038
-0.10751047 0.11833205 0.048597965 1.7423728e-038
-0.10549425 0.11832961 0.048662972 1.7423728e-038
-0.10347816 0.11832713 0.048727896 1.7885427e-038
-0.10152769 0.11900732 0.048036937 1.7701745e-038
-0.0995147 0.1190047 0.04810157 1.7793231e-038
-0.097501874 0.11900201 0.048166141 1.7883641e-038
-0.095562801 0.11968203 0.047474544 1.7606337e-038
-0.093476802 0.11899643 0.048294973 1.7973329e-038
-0.0917015 0.12104192 0.046090521 1.6959898e-038
-0.089697585 0.121039 0.046154469 1.6406404e-038
-0.087609462 0.12035322 0.046974722 1.6314612e-038
-0.08542902 0.11898452 0.048551582 1.6503369e-038
-0.083417587 0.11898139 0.048615523 1.7515361e-038
-0.081591435 0.12034385 0.047166027 1.659375e-038
-0.079585843 0.12034062 0.047229629 1.5763268e-038
-0.077678412 0.12102015 0.046536323 1.6315356e-038
-0.075575314 0.120334 0.047356606 1.5577788e-038
-0.073467009 0.11964773 0.048177011 1.5762182e-038
-0.071459576 0.1196443 0.048240416 1.6223882e-038
-0.069452383 0.1196408 0.04830372 1.696326e-038
-0.067556947 0.12032013 0.047609661 1.7333485e-038
-0.065324485 0.1189508 0.049187463 1.8805004e-038
-0.15832421 0.089771122 0.075389862 1.3738906e-038
-0.15605567 0.10208911 0.061938658 2.2116778e-039
-0.15392588 0.10893215 0.054494809 1.7510962e-039
-0.15187678 0.10824712 0.055314738 1.2919117e-039
-0.14982359 0.11029948 0.053128637 1.6628172e-039
-0.14778069 0.11098302 0.05244517 8.578553e-039
-0.14573753 0.11098211 0.052513082 1.1798876e-038
-0.14369442 0.11098112 0.052580889 1.2067499e-038
-0.14167376 0.11234877 0.051144838 1.5195985e-038
-0.13963623 0.11234762 0.05121224 1.6396673e-038
-0.13761541 0.11303081 0.050527453 1.6582847e-038
-0.13558078 0.11302949 0.050594546 1.6583922e-038
-0.13359036 0.11439685 0.049157087 1.6679338e-038
-0.13156137 0.11439538 0.049223796 1.7233232e-038
-0.12953247 0.11439385 0.049290396 1.7970797e-038
-0.12747347 0.11370785 0.050109398 1.6773694e-038
-0.12547502 0.11439054 0.049423303 1.7234672e-038
-0.12348211 0.11507314 0.048736915 1.7696728e-038
-0.12145641 0.1150713 0.048803013 1.7421216e-038
-0.11947191 0.11575377 0.048116162 1.7237901e-038
-0.1174492 0.11575177 0.048181966 1.7053507e-038
-0.11547314 0.11643416 0.047494616 1.7514485e-038
-0.1134042 0.11574758 0.048313286 1.7237898e-038
-0.11138194 0.11574538 0.048378803 1.7699595e-038
-0.10925055 0.1143743 0.04995079 1.7699595e-038
-0.10728053 0.11505634 0.049262896 1.7423728e-038
-0.1053161 0.11573832 0.048574738 1.760812e-038
-0.10335729 0.11642028 0.047886249 1.8253489e-038
-0.10133858 0.11641775 0.047951207 1.7516644e-038
-0.099320032 0.11641513 0.048016053 1.7885071e-038
-0.097301677 0.11641245 0.048080809 1.769925e-038
-0.095283523 0.11640969 0.048145462 1.8159154e-038
-0.093341902 0.1170913 0.047456034 1.7697464e-038
-0.091484956 0.11845729 0.046012275 1.6867353e-038
-0.089557298 0.11913885 0.045322213 1.5853585e-038
-0.08729732 0.11708252 0.047648985 1.6222416e-038
-0.085195675 0.11639503 0.048467461 1.6870697e-038
-0.083088808 0.11570741 0.049286064 1.7057266e-038
-0.081347212 0.11775763 0.047086641 1.6873231e-038
-0.079336122 0.1177544 0.047150444 1.3921515e-038
-0.077521309 0.11912011 0.045704775 1.6779214e-038
-0.075516082 0.11911677 0.045768246 1.6041291e-038
-0.073407598 0.1184289 0.046586547 1.6686664e-038
-0.071293943 0.11774099 0.047404893 1.604238e-038
-0.069283962 0.11773752 0.04746832 1.7148373e-038
-0.067274198 0.117734 0.047531698 1.0694313e-038
-0.065036118 0.11636144 0.049105372 1.0134623e-038
-0.15825608 0.089168355 0.072958991 1.4014065e-038
-0.15600698 0.10014399 0.061044551 8.2874333e-040
-0.15389015 0.10494545 0.05586987 2.3957411e-039
-0.15182765 0.1049448 0.055938758 1.2919131e-039
-0.14976601 0.10631608 0.054508764 2.3074803e-039
-0.1477153 0.10768728 0.053078357 6.6413686e-039
-0.14566384 0.10768636 0.053146537 6.2718672e-039
-0.14362098 0.10837142 0.052464947 9.946303e-039
-0.1415724 0.10837035 0.052532837 1.3263141e-038
-0.13952386 0.10836922 0.05260063 1.5569429e-038
-0.13749212 0.10905398 0.051918391 1.57531e-038
-0.13546593 0.1097387 0.051235873 1.5754174e-038
-0.13346738 0.11110935 0.049803004 1.6862306e-038
-0.13143009 0.11110789 0.049869999 1.7326136e-038
-0.12944806 0.11247843 0.048436318 1.6956998e-038
-0.12738615 0.11179081 0.049253277 1.7142468e-038
-0.12535192 0.11178914 0.049319886 1.7604164e-038
-0.12331783 0.11178735 0.049386352 1.7420493e-038
-0.12128385 0.11178553 0.049452756 1.7421569e-038
-0.11929116 0.11246964 0.048768338 1.7145702e-038
-0.11721633 0.11178163 0.049585223 1.714606e-038
-0.11522935 0.11246561 0.048900437 1.7422644e-038
-0.11319868 0.11246348 0.04896633 1.7514842e-038
-0.11116814 0.11246128 0.049032129 1.7699231e-038
-0.10908306 0.11177297 0.049848974 1.7330805e-038
-0.10710756 0.11245666 0.049163431 1.7238613e-038
-0.10513768 0.11314031 0.04847762 1.7515924e-038
-0.1031734 0.11382388 0.047791522 1.760812e-038
-0.10108358 0.11313529 0.048608173 1.7792511e-038
-0.099056803 0.11313268 0.048673294 1.7792158e-038
-0.097030208 0.11313 0.048738338 1.8068745e-038
-0.0950775 0.11381334 0.048051551 1.7237552e-038
-0.09313044 0.1144966 0.047364481 1.7420521e-038
-0.09118899 0.11517987 0.046677105 1.6775161e-038
-0.089171328 0.11517695 0.046741534 1.5944715e-038
-0.087069295 0.11448785 0.047558017 1.6038744e-038
-0.084874764 0.11311264 0.049126737 1.696108e-038
-0.082759619 0.11242344 0.049943455 1.7240214e-038
-0.081010021 0.11447856 0.047750805 1.8254366e-038
-0.07908611 0.11516149 0.047062416 9.3001965e-039
-0.077167839 0.11584433 0.046373807 1.2525944e-038
-0.075053565 0.11515492 0.047190197 1.5106325e-038
-0.072934084 0.11446539 0.048006725 1.7412295e-038
-0.070915662 0.11446198 0.048070531 1.3817745e-038
-0.068788521 0.11377238 0.048887119 9.2112042e-039
-0.066879526 0.11445498 0.048197888 1.1789808e-038
-0.064633057 0.11307915 0.049767558 1.3358208e-038
-0.15818809 0.088568717 0.070532084 1.3093915e-038
-0.1559581 0.098195367 0.060145874 8.2874753e-040
-0.15382904 0.10438368 0.053492211 1.9369266e-039
-0.15177584 0.10232005 0.055802442 1.9379916e-039
-0.1497083 0.10300696 0.055124201 1.2014873e-039
-0.14764625 0.10369378 0.054445662 5.9970782e-039
-0.14558379 0.10369287 0.054514233 8.5785558e-039
-0.14353003 0.10437958 0.053835165 8.288232e-039
-0.14148176 0.10506617 0.053155847 1.2987999e-038
-0.13943902 0.10575268 0.052476261 1.4002104e-038
-0.1374018 0.10643911 0.051796366 1.5845649e-038
-0.1353506 0.10643783 0.05186405 1.5571213e-038
-0.13336615 0.10849947 0.049687769 1.704741e-038
-0.13134824 0.10918568 0.049006946 1.7049904e-038
-0.12933587 0.10987182 0.048325825 1.7142454e-038
-0.12726833 0.10918257 0.049140844 1.705027e-038
-0.12522854 0.10918088 0.049207643 1.7235381e-038
-0.12318888 0.10917912 0.049274325 1.7789631e-038
-0.12114936 0.10917731 0.049340919 1.7421569e-038
-0.11915119 0.10986307 0.048658837 1.7237898e-038
-0.11711466 0.10986109 0.048725132 1.6961668e-038
-0.11507828 0.10985906 0.048791341 1.7421923e-038
-0.11304206 0.10985693 0.048857439 1.7790709e-038
-0.1109539 0.10916707 0.04967235 1.7423353e-038
-0.10897008 0.10985249 0.048989337 1.7976172e-038
-0.10693432 0.10985017 0.049055152 1.7331166e-038
-0.10489875 0.10984777 0.049120866 1.7423007e-038
-0.10286335 0.10984531 0.049186479 1.760812e-038
-0.10082815 0.10984276 0.049251992 1.7238981e-038
-0.098861478 0.11052792 0.048567943 1.7976549e-038
-0.096900433 0.11121296 0.047883663 1.7421946e-038
-0.094944991 0.11189796 0.04719913 1.7421228e-038
-0.092995189 0.11258289 0.046514325 1.7142505e-038
-0.090892576 0.11189233 0.047328822 1.6497151e-038
-0.088866673 0.11188943 0.047393538 1.5114234e-038
-0.086671688 0.110511 0.048958097 1.6406807e-038
-0.084640779 0.11050797 0.049022816 1.6593739e-038
