# .PCD v0.7 - Point Cloud Data file format
VERSION 0.7
FIELDS x y z rgb
SIZE 4 4 4 4
TYPE F F F F
COUNT 1 1 1 1
WIDTH 941
HEIGHT 1
VIEWPOINT 0 0 0 1 0 0 0
POINTS 941
DATA ascii
0.082638301 0.043757498 0.033293873 1.6671825e-038
0.084166065 0.045230146 0.031978335 1.5562958e-038
0.085983358 0.045965422 0.031354729 1.3716185e-038
0.087492324 0.047438174 0.030038698 1.371475e-038
0.089296266 0.04817351 0.029414814 1.0491163e-038
0.091094896 0.048908897 0.028790815 9.8490389e-039
0.091954961 0.051856827 0.026088843 1.0584454e-038
0.092479862 0.05554232 0.022693556 1.2874232e-038
0.092345029 0.060702909 0.017911848 1.3607843e-038
0.092810981 0.064388558 0.014514768 1.4253568e-038
0.093250118 0.068074286 0.011116885 1.2975414e-038
0.094636135 0.069547601 0.0097973337 1.7311829e-038
0.096011579 0.071020938 0.0084775463 1.4825041e-038
0.098036274 0.071019344 0.0085439365 1.8424974e-038
0.099728584 0.071755305 0.007917095 1.8424251e-038
0.10141573 0.072491333 0.0072901724 1.8330977e-038
0.10377376 0.071752414 0.0080501325 1.8141192e-038
0.10613745 0.071013562 0.0088103628 1.7585867e-038
0.10850679 0.070274763 0.0095708584 1.6571726e-038
0.11053573 0.070273533 0.0096378773 1.5201416e-038
0.11221625 0.071009889 0.0090111522 2.0829668e-038
0.11459465 0.070271291 0.0097722113 8.294664e-039
0.11627042 0.071007788 0.0091455076 1.8620573e-038
0.11829807 0.071006842 0.0092128441 1.9635447e-038
0.11960702 0.072480999 0.0078918887 1.9266664e-038
0.1216301 0.072480202 0.0079592643 1.8989356e-038
0.1240186 0.071741961 0.008721143 1.8712769e-038
0.1260453 0.07174132 0.0087888427 1.8248584e-038
0.12844282 0.071003236 0.0095512234 1.4284174e-038
0.13010019 0.07174027 0.0089246044 1.078109e-038
0.13175264 0.072477393 0.0082979361 1.8525133e-038
0.13340025 0.073214643 0.0076711597 1.9538561e-038
0.13580541 0.072476842 0.0084342752 1.9072895e-038
0.13821651 0.071739174 0.0091976635 1.6301997e-038
0.1398605 0.07247664 0.0085711526 1.3535775e-038
0.14188902 0.07247667 0.0086398004 1.215176e-038
0.14391826 0.072476804 0.0087085962 1.0492627e-038
0.14752688 0.069526933 0.011559065 9.3884461e-039
0.15115792 0.066577107 0.014410446 6.5361465e-039
0.15361108 0.065839961 0.015176037 5.1593413e-039
0.15526484 0.066578038 0.014550559 4.9785528e-039
0.049072724 0.0085168239 0.061815646 1.6215539e-038
0.050839409 0.0099919233 0.060511395 1.6492837e-038
0.052595101 0.011467107 0.059206784 1.4825776e-038
0.054586373 0.012203218 0.058590252 1.4730707e-038
0.056322832 0.013678415 0.057285108 1.2418648e-038
0.058804158 0.012936465 0.058045268 1.2968944e-038
0.060272068 0.015150819 0.056051046 1.4347924e-038
0.061981052 0.016626116 0.054745104 1.4438324e-038
0.062898971 0.020318704 0.051372375 1.462524e-038
0.064578049 0.021794129 0.050065488 1.0758786e-038
0.066246152 0.023269545 0.048758313 1.9078719e-038
0.068171524 0.024005968 0.048139863 1.4193071e-038
0.070091374 0.024742384 0.047521308 2.0185787e-038
0.071458772 0.026957003 0.045524132 2.0277983e-038
0.073086075 0.028432634 0.044215765 2.0457331e-038
0.074423693 0.030647354 0.042217705 1.2416511e-038
0.075745098 0.032862172 0.040219139 1.379403e-038
0.077050298 0.035077043 0.038220081 1.4620188e-038
0.078626253 0.036552828 0.036910273 1.4436517e-038
0.080191404 0.038028695 0.035600115 1.5174803e-038
0.081453502 0.040243685 0.033599861 1.6837915e-038
0.082994394 0.04171966 0.032289021 1.7496576e-038
0.084822305 0.04245653 0.031667951 1.50984e-038
0.086344473 0.043932565 0.030356653 1.4636707e-038
0.087855853 0.045408696 0.029045016 1.3899145e-038
0.089968137 0.045406595 0.02911371 1.3253074e-038
0.091463551 0.046882801 0.027801726 1.3160524e-038
0.09263704 0.049098223 0.025798943 1.2417927e-038
0.093480721 0.052052848 0.023105163 1.3425605e-038
0.094619513 0.05426836 0.021101419 1.4343964e-038
0.0957423 0.056483988 0.019097187 1.4710226e-038
0.095883295 0.060917098 0.015020065 1.4986457e-038
0.095992111 0.065350324 0.010941908 1.8126136e-038
0.096723452 0.068305306 0.0082447985 1.934227e-038
0.097763464 0.070521168 0.0062381686 1.8148033e-038
0.099785596 0.070519656 0.0063045882 1.8334211e-038
0.10147255 0.07125736 0.0056798356 1.7503375e-038
0.1034925 0.071255967 0.0057463376 1.7776008e-038
0.10585346 0.070515491 0.0065043545 1.7498701e-038
0.10787659 0.070514217 0.0065711099 1.638913e-038
0.11024621 0.06977386 0.0073295841 1.5282076e-038
0.11192383 0.070511878 0.0067049293 1.8701235e-038
0.11394791 0.070510805 0.0067719771 1.9357409e-038
0.11526388 0.071988165 0.0054553403 1.898971e-038
0.11728333 0.071987227 0.0055224113 1.9450325e-038
0.11894357 0.072725527 0.0048975488 1.9635074e-038
0.12132348 0.071985573 0.005656885 1.9543233e-038
0.12370922 0.071245648 0.0064165681 1.917481e-038
0.12610085 0.070505843 0.0071765059 1.9357429e-038
0.12738702 0.07198365 0.005859443 1.9080845e-038
0.12940919 0.071983159 0.0059271939 1.9080834e-038
0.13105604 0.072721921 0.0053024716 1.9264862e-038
0.13307656 0.072721593 0.0053703762 1.815779e-038
0.13547891 0.071982183 0.0061311908 1.9077937e-038
0.1378873 0.071242809 0.0068923552 1.8338926e-038
0.13952835 0.071981944 0.0062678279 1.6489958e-038
0.14116468 0.072721124 0.0056433044 1.5748072e-038
0.14318833 0.072721228 0.0057118782 1.3256663e-038
0.14639695 0.070503868 0.0078603346 1.2337235e-038
0.14962251 0.068286657 0.010009454 1.0310737e-038
0.1532653 0.065330327 0.012852734 5.70999e-039
0.15491608 0.066069968 0.012229295 4.5164858e-039
0.15696783 0.066070542 0.012299436 4.3331806e-039
0.15942873 0.065332055 0.013063434 5.3487759e-039
0.052904289 0.0093572494 0.058106247 1.4456636e-038
0.05489815 0.010095084 0.057492051 1.4268654e-038
0.056387745 0.012314349 0.055505075 1.3526074e-038
0.058869123 0.011570821 0.056263182 1.2693802e-038
0.060591497 0.013049485 0.054961994 1.3703993e-038
0.06204557 0.015268854 0.052973948 1.5176965e-038
0.063223153 0.018229024 0.050298713 1.4992942e-038
0.065167509 0.01896704 0.049683075 1.6937691e-038
0.067106314 0.019705134 0.049067259 1.9908473e-038
0.06903962 0.020443209 0.048451327 8.3703425e-039
0.070425659 0.022662833 0.046461221 8.9267561e-039
0.072069027 0.024141721 0.045157749 8.1005953e-039
0.073425241 0.026361436 0.043166749 8.8306004e-039
0.074765272 0.028581154 0.04117531 1.7493024e-038
0.075807437 0.031541716 0.038495999 1.3241585e-038
0.077112354 0.033761583 0.036503464 1.4803506e-038
0.078688085 0.035240714 0.035198018 1.5357034e-038
0.080832459 0.035238385 0.035267502 1.4804945e-038
0.082392015 0.036717646 0.033961587 1.4161372e-038
0.083645694 0.038937673 0.031967625 1.2142061e-038
0.085181035 0.040417045 0.030661032 1.2882134e-038
0.08670564 0.041896418 0.029354181 1.2973961e-038
0.088522688 0.042635072 0.028735075 1.2697021e-038
0.090028502 0.044114597 0.027427685 1.2419359e-038
0.091523707 0.045594133 0.026120052 1.2049499e-038
0.093008153 0.047073767 0.024812084 1.2138461e-038
0.093540192 0.050775789 0.021438627 1.3149018e-038
0.095311925 0.051514722 0.020818356 1.4343244e-038
0.096759066 0.05299449 0.019509397 1.4802066e-038
0.097551584 0.055955932 0.016822793 1.4894261e-038
0.097673334 0.060399055 0.012758011 1.4710946e-038
0.09776298 0.064842217 0.0086922888 1.388837e-038
0.098480619 0.067803875 0.0060034338 1.9433393e-038
0.099842541 0.069283977 0.0046920269 1.7966149e-038
0.10085841 0.07150498 0.0026912075 1.7504447e-038
0.10287285 0.071503624 0.0027575607 1.787072e-038
0.10488755 0.071502313 0.0028239901 1.7222831e-038
0.10724605 0.07076028 0.0035798885 1.7772422e-038
0.10926399 0.070759095 0.0036465838 1.5372831e-038
0.11093335 0.071498781 0.003023834 1.1509976e-038
0.11294926 0.071497723 0.0030906321 1.9908418e-038
0.1149655 0.071496733 0.0031575232 1.908118e-038
0.11698219 0.071495816 0.0032245263 1.9542155e-038
0.11863953 0.072235771 0.0026017241 1.9081897e-038
0.12065427 0.072234988 0.0026688292 1.9082252e-038
0.12303454 0.071493462 0.00342615 1.9266294e-038
0.1254207 0.07075201 0.004183745 1.9357429e-038
0.12670125 0.072233073 0.0028708377 1.9542178e-038
0.1283447 0.072973393 0.0022480427 1.9449979e-038
0.13035914 0.072972983 0.0023156337 1.9357421e-038
0.13313138 0.071491018 0.0037644226 1.9540726e-038
0.13515234 0.071490765 0.0038324383 1.8617679e-038
0.13755791 0.070749782 0.0045913006 1.9078292e-038
0.1391961 0.071490496 0.0039688456 1.8521138e-038
0.14121893 0.071490496 0.0040372536 1.7504817e-038
0.1432424 0.071490571 0.0041057914 1.6484942e-038
0.14566143 0.070749931 0.0048655518 1.2520543e-038
0.14888167 0.068527706 0.0070080506 1.0495129e-038
0.15211892 0.06630557 0.0091512352 8.1945874e-039
0.15456726 0.065565199 0.0099123474 5.8036219e-039
0.15621048 0.066306546 0.009290888 3.7810844e-039
0.15784915 0.067048043 0.0086693587 4.4271755e-039
0.16071647 0.065567113 0.010122808 5.2576564e-039
0.057200804 0.0087231435 0.055777419 1.3530393e-038
0.058933977 0.010205101 0.054480989 1.2236776e-038
0.060656153 0.011687126 0.053184189 1.3796188e-038
0.062109947 0.013911509 0.051202685 1.4899658e-038
0.063807562 0.015393612 0.049905151 1.4716352e-038
0.065494306 0.016875708 0.048607338 1.6286558e-038
0.067435645 0.017615464 0.047993876 1.5277446e-038
0.069103286 0.019097678 0.046695471 1.3705083e-038
0.071030959 0.019837502 0.046081636 1.3797279e-038
0.072679482 0.02131979 0.044782683 1.3244105e-038
0.074040808 0.023544457 0.04279843 1.1779057e-038
0.075664952 0.025026828 0.041498762 1.2618178e-038
0.076714821 0.027993979 0.038828418 1.2252274e-038
0.078027502 0.03021884 0.03684267 1.4899303e-038
0.079323992 0.032443754 0.034856446 1.4803506e-038
0.081763469 0.031699076 0.035611633 1.5357041e-038
0.083623372 0.032439228 0.034995936 1.4349009e-038
0.085182689 0.033921834 0.033694476 1.315839e-038
0.086135536 0.036889348 0.031021234 1.2601256e-038
0.087667979 0.038372103 0.029718965 1.2690928e-038
0.089189723 0.039854866 0.028416442 1.2322146e-038
0.090700753 0.041337676 0.027113622 1.3795111e-038
0.091892429 0.043563008 0.025124399 1.3795108e-038
0.093068041 0.045788392 0.023134701 1.3608919e-038
0.094541647 0.047271378 0.021830838 1.3700038e-038
0.096321262 0.048011988 0.021213027 1.3607122e-038
0.098095626 0.048752703 0.02059507 1.4160296e-038
0.099220596 0.050978273 0.018604005 1.4527281e-038
0.1000048 0.053946398 0.015925847 1.4894983e-038
0.10044019 0.057657011 0.012560352 1.5170848e-038
0.1005187 0.062110141 0.008507276 1.3976259e-038
0.10089799 0.065820955 0.0051400489 1.5374291e-038
0.10125051 0.069531798 0.0017720393 1.9254031e-038
0.1025911 0.071015343 0.000464421 1.8241292e-038
0.10426206 0.071756512 -0.00015634391 1.7318261e-038
0.10661518 0.071012855 0.00059725181 1.7590187e-038
0.10862765 0.071011692 0.000663799 1.657496e-038
0.11029145 0.07175304 4.3041771e-005 1.5648698e-038
0.11265355 0.071009561 0.00079716509 1.3345971e-038
0.11431264 0.071751036 0.00017641252 1.9263406e-038
0.11596666 0.072492577 -0.000444429 1.945068e-038
0.11797551 0.072491735 -0.00037759449 1.9450314e-038
0.11998478 0.072490968 -0.00031064497 1.8620919e-038
0.12235964 0.07174781 0.00044434587 1.9542521e-038
0.12437246 0.071747169 0.00051158434 1.9357421e-038
0.12601522 0.072489068 -0.00010918453 1.8712054e-038
0.12802631 0.072488576 -4.1811261e-005 1.8526943e-038
0.13003795 0.072488159 2.5677029e-005 1.8989357e-038
0.13242878 0.071745358 0.0007816779 1.9356333e-038
0.13444425 0.071745098 0.00084949704 1.9356323e-038
0.13646029 0.071744911 0.00091743679 1.9355235e-038
0.13847695 0.071744807 0.0009855011 1.8707339e-038
0.14049423 0.071744792 0.0010537019 1.8521493e-038
0.14251217 0.071744844 0.0011220186 1.7503742e-038
0.14492573 0.071002536 0.0018794215 1.4087487e-038
0.14734536 0.070260301 0.0026371349 8.4661156e-039
0.14977118 0.069518164 0.0033951798 9.3891579e-039
0.15260626 0.068033621 0.0048428169 9.2969595e-039
0.15504716 0.067291662 0.0056016035 6.3524783e-039
0.15831129 0.06506484 0.0077395765 4.699438e-039
0.16035898 0.065065533 0.007809734 4.1509403e-039
0.16157982 0.066551276 0.0065008281 5.53243e-039
0.16362394 0.066552155 0.006571115 5.4416679e-039
0.059250887 0.0080952942 0.053380784 1.1687925e-038
0.061230473 0.00883664 0.052770689 1.4256446e-038
0.062946923 0.010322062 0.051478133 1.4898216e-038
0.064912684 0.011063466 0.050867647 1.3886229e-038
0.06634704 0.013292975 0.048892085 1.3980225e-038
0.06803073 0.014778459 0.047598597 1.3335577e-038
0.069435157 0.017008044 0.045622129 1.4256813e-038
0.071094356 0.018493606 0.044327915 1.3428493e-038
0.072742701 0.019979261 0.043033354 1.3244102e-038
0.074380174 0.021464899 0.041738506 1.0862141e-038
0.076285928 0.022206547 0.041126307 1.7969848e-038
0.077058986 0.025924426 0.037781727 1.3541938e-038
0.078658551 0.027410239 0.036485724 1.4715635e-038
0.079960153 0.029640105 0.034506235 1.4989691e-038
0.082115173 0.029637881 0.034576211 1.4897507e-038
0.08368504 0.031123828 0.033279382 1.3797999e-038
0.085244149 0.032609783 0.031982295 2.1195252e-038
0.08649455 0.034839876 0.030001279 1.0117736e-038
0.088330097 0.035581879 0.02938717 1.2875322e-038
0.089553662 0.03781208 0.027405391 1.2967515e-038
0.090761118 0.040042292 0.025423177 1.3886226e-038
0.09195254 0.042272605 0.023440456 1.4162093e-038
0.093127847 0.044502981 0.021457262 1.4345408e-038
0.094915271 0.04524523 0.020841854 1.4437605e-038
0.096697427 0.045987528 0.02022633 1.4161018e-038
0.098474346 0.046729878 0.019610697 1.5267365e-038
0.099601686 0.048960477 0.017626178 1.3792235e-038
0.10071306 0.051191136 0.015641205 1.3700394e-038
0.10180844 0.053421814 0.0136558 1.4066657e-038
0.10255764 0.056396678 0.010985275 1.4162091e-038
0.10261969 0.060859777 0.006944661 1.3147585e-038
0.10298518 0.064578913 0.0035878373 1.287638e-038
0.10332409 0.068298072 0.00023024366 1.6856214e-038
0.10431826 0.070529088 -0.0017581363 1.7041322e-038
0.10564029 0.07201612 -0.0030619316 1.7501946e-038
0.10799098 0.071270846 -0.0023104199 1.7038457e-038
0.10964917 0.072013915 -0.0029292384 1.5557223e-038
0.11200589 0.071268752 -0.0021773716 1.4451961e-038
0.11401385 0.071267806 -0.0021107064 8.381089e-039
0.11602222 0.071266912 -0.0020439527 1.5761058e-038
0.11767101 0.072010219 -0.0026627607 1.9357395e-038
0.11967748 0.072009459 -0.0025958968 1.9449238e-038
0.12168435 0.072008774 -0.002528931 1.9633631e-038
0.12405967 0.071263991 -0.0017759413 1.9818399e-038
0.12607017 0.071263433 -0.0017086812 1.8895725e-038
0.12808119 0.071262941 -0.0016413089 8.6602263e-039
0.13009267 0.071262524 -0.0015738299 1.5945476e-038
0.13210472 0.071262181 -0.0015062317 1.7604606e-038
0.13373588 0.072006062 -0.0021248977 1.9264128e-038
0.13536224 0.072749965 -0.0027435864 1.96311e-038
0.13775748 0.072005749 -0.0019892962 1.8984646e-038
0.1397692 0.072005711 -0.0019213096 1.8891364e-038
0.14178163 0.072005749 -0.0018531922 1.8888117e-038
0.1437947 0.072005868 -0.0017849547 1.7133532e-038
0.14620623 0.071261927 -0.0010296521 1.5099854e-038
0.14822346 0.071262218 -0.00096104993 1.2979016e-038
0.15104769 0.069774397 0.0004818337 1.1230188e-038
0.15428929 0.067542508 0.002612425 9.5739121e-039
0.1571395 0.066054866 0.0040564258 5.5252344e-039
0.157534 0.069031954 0.0013768128 2.7698009e-039
0.15749373 0.072753236 -0.0019908403 6.0870359e-039
0.15951052 0.072754055 -0.001921556 1.7517128e-038
0.16236703 0.071266741 -0.00047680875 1.9357423e-038
0.16692367 0.066803142 0.0037193461 1.8156705e-038
0.063268982 0.008213941 0.050380394 1.4714901e-038
0.0647166 0.01044842 0.048411783 1.4715621e-038
0.066411018 0.011937278 0.047122966 1.3978776e-038
0.068094499 0.013426133 0.045833874 1.3795468e-038
0.069767125 0.014915021 0.044544455 1.3611798e-038
0.071157679 0.017149661 0.042574119 1.3612885e-038
0.072805822 0.018638672 0.041283939 1.3615048e-038
0.074443072 0.020127673 0.039993472 1.5389093e-038
0.076348685 0.020871028 0.039383505 1.2161169e-038
0.077685066 0.023105841 0.037411563 9.0103281e-039
0.079574421 0.023849275 0.036801148 1.094535e-038
0.080883764 0.026084179 0.034828413 1.3626216e-038
0.082756817 0.026827693 0.034217551 1.5195339e-038
0.083746605 0.02980838 0.031562764 1.6483558e-038
0.085600816 0.030551981 0.030951381 2.0553486e-038
0.086853623 0.032787077 0.028976977 9.5652857e-039
0.088691719 0.033530764 0.028365165 1.2876043e-038
0.089614309 0.036511663 0.025708379 1.2967518e-038
0.091127537 0.038001161 0.024414372 1.3702555e-038
0.092321329 0.040236466 0.022438243 1.4069897e-038
0.094121978 0.040980354 0.021825425 1.5172289e-038
0.095917344 0.041724283 0.021212481 1.4896063e-038
0.097707413 0.042468265 0.020599423 1.5548996e-038
0.099172704 0.043958064 0.019304089 1.4720675e-038
0.1003051 0.04619363 0.017326234 1.3149027e-038
0.10174647 0.0476835 0.016030278 1.3425251e-038
0.10284962 0.049919188 0.014051592 1.3056823e-038
0.10393685 0.052154899 0.01207249 1.3609996e-038
0.10467506 0.055136435 0.009410304 1.3425602e-038
0.10505628 0.05886377 0.0060648266 1.39777e-038
0.10507246 0.063336954 0.0020357496 1.4162447e-038
0.10607982 0.065572917 5.4282835e-005 1.5545379e-038
0.10707126 0.067809001 -0.0019276747 1.8602554e-038
0.10839332 0.069299363 -0.0032270185 1.7500529e-038
0.10935573 0.071535558 -0.0052097989 1.243304e-038
0.11135788 0.071534574 -0.0051433803 1.077855e-038
0.11300581 0.072279371 -0.0057601687 1.5020609e-038
0.11536322 0.071532756 -0.0050102873 1.3452568e-038
0.11664657 0.073023431 -0.0063105375 1.6588284e-038
0.11900747 0.072276942 -0.0055603706 1.8618379e-038
0.12137411 0.071530506 -0.0048099495 1.9909113e-038
0.12337869 0.071529888 -0.0047429586 1.981692e-038
0.12538365 0.071529329 -0.0046758773 1.9909116e-038
0.12738915 0.071528845 -0.0046086903 1.7788617e-038
0.12977123 0.070782676 -0.0038573886 1.0965799e-038
0.13140167 0.071528077 -0.0044739903 1.6313512e-038
0.13302724 0.072273552 -0.0050906623 1.8249976e-038
0.13503221 0.072273344 -0.0050231181 1.953999e-038
0.13665085 0.073018968 -0.005639832 1.861767e-038
0.139044 0.072273172 -0.0048876726 1.9077563e-038
0.14144319 0.071527444 -0.0041352222 1.9258352e-038
0.14305839 0.072273299 -0.0047517414 1.8058004e-038
0.14506663 0.072273478 -0.0046835872 1.731288e-038
0.14667518 0.073019497 -0.0053001284 1.6020705e-038
0.1498917 0.070782594 -0.00317703 1.2519478e-038
0.15231355 0.070037238 -0.0024232268 6.3521084e-039
0.1551502 0.068546265 -0.00098404102 5.8057757e-039
0.15511939 0.072275646 -0.0043407781 1.161985e-038
0.15589036 0.074513614 -0.0063277204 1.8619867e-038
0.1583129 0.073768646 -0.0055734799 1.8525866e-038
0.16074181 0.073023736 -0.0048188581 1.880135e-038
0.16359918 0.071533218 -0.0033783712 1.879955e-038
0.16689335 0.069297016 -0.0012516356 1.5112819e-038
0.064780697 0.0090892911 0.046638176 1.4808537e-038
0.066738032 0.009834162 0.046031937 1.4347559e-038
0.068423986 0.011326426 0.044747282 1.3795468e-038
0.07036759 0.012071362 0.044140667 1.3611798e-038
0.071492083 0.015058324 0.041498631 1.3151906e-038
0.073142722 0.016550649 0.040212967 1.2971838e-038
0.075059004 0.017295726 0.039605509 2.0738596e-038
0.076690637 0.018788122 0.038319293 1.990992e-038
0.078029402 0.02102793 0.036353957 2.000212e-038
0.079921313 0.021773081 0.035745874 2.0092517e-038
0.081233092 0.024012936 0.033779781 1.5935427e-038
0.083398722 0.02401082 0.03385026 8.5536533e-039
0.084686227 0.026250804 0.031883419 1.9810884e-038
0.086252965 0.027743498 0.030595293 1.3452985e-038
0.087510884 0.029983535 0.028627625 1.1957329e-038
0.088752657 0.032223668 0.026659437 1.3151909e-038
0.09028177 0.033716455 0.025370261 1.3244105e-038
0.091800183 0.035209335 0.024080744 1.3241937e-038
0.092999063 0.03744958 0.022111345 1.3243016e-038
0.094493374 0.038942561 0.020821147 1.3978787e-038
0.095977053 0.040435545 0.019530695 1.8134791e-038
0.097766988 0.041181222 0.018919848 1.610649e-038
0.099232048 0.042674348 0.017628856 1.4168222e-038
0.1006865 0.044167496 0.016337622 1.4622716e-038
0.10213029 0.045660734 0.015046053 1.388515e-038
0.10290813 0.04864876 0.012393693 1.3241214e-038
0.10399499 0.050889444 0.010421075 1.3426323e-038
0.10539901 0.052382853 0.0091283843 1.3334127e-038
0.10712825 0.053128902 0.0085159708 1.3978773e-038
0.10716005 0.057611935 0.0045003886 1.4346118e-038
0.10818322 0.059852906 0.002525894 1.5173362e-038
0.10850283 0.063588694 -0.0008106248 1.4530507e-038
0.1098354 0.065082364 -0.0021052931 1.1681806e-038
0.10976061 0.069565713 -0.0061241644 1.4834814e-038
0.11070956 0.071806893 -0.0081007965 1.8432593e-038
0.11270652 0.071805976 -0.0080344556 1.8155981e-038
0.11470389 0.071805127 -0.0079680178 1.9446002e-038
0.11670163 0.07180433 -0.0079014953 1.8523682e-038
0.11869981 0.071803592 -0.0078348815 1.7509163e-038
0.12106379 0.071055524 -0.007086671 1.49291e-038
0.12343359 0.070307523 -0.0063381861 1.8062324e-038
0.12506764 0.071054362 -0.0069527836 1.999986e-038
0.12707032 0.071053877 -0.0068856836 2.0000591e-038
0.12907349 0.07105346 -0.0068184817 1.963182e-038
0.13145612 0.07030572 -0.006069222 1.944744e-038
0.1330815 0.071052834 -0.0066837566 1.9631831e-038
0.13508639 0.071052626 -0.0066162245 1.9539993e-038
0.13631779 0.072547324 -0.0079130726 1.8986099e-038
0.13870816 0.071799815 -0.0071631456 1.9539625e-038
0.14110465 0.071052432 -0.0064129373 1.9077563e-038
0.14271696 0.071799912 -0.007027443 1.8152004e-038
0.14472237 0.071800075 -0.0069594048 1.7410116e-038
0.14592743 0.073295146 -0.0082566477 1.6668234e-038
0.1483321 0.072548077 -0.0075057689 1.4824701e-038
0.1507431 0.071801037 -0.0067545287 5.7985618e-039
0.15275155 0.071801521 -0.0066859755 5.0721637e-039
0.15393814 0.073296919 -0.0079834173 1.8904379e-038
0.15511476 0.074792348 -0.0092810625 1.8619864e-038
0.15794852 0.073298305 -0.0078459783 1.9265228e-038
0.16079414 0.071804315 -0.0064103291 1.9171223e-038
0.1636515 0.070310451 -0.0049742088 1.8156715e-038
0.16524589 0.071058854 -0.0055881091 1.2436636e-038
0.16769125 0.070312567 -0.004834821 6.6276345e-039
0.066801853 0.0084766904 0.044260487 1.4625582e-038
0.068487637 0.0099723181 0.042980224 1.3979859e-038
0.070431113 0.010718973 0.042375848 1.3519603e-038
0.072097816 0.012214622 0.041095063 1.3428128e-038
0.073753603 0.013710346 0.039813913 1.2876397e-038
0.075398535 0.015206066 0.038532484 1.2047002e-038
0.077032618 0.01670187 0.037250705 1.2966439e-038
0.078373834 0.018946638 0.035292033 1.2690574e-038
0.080552965 0.018944511 0.035362951 1.1585669e-038
0.081869818 0.021189408 0.033403527 1.0115583e-038
0.083750717 0.02193634 0.032797392 1.2339078e-038
0.085040614 0.024181321 0.030837163 1.8340437e-038
0.086905345 0.024928333 0.030230591 7.5434657e-039
0.087870121 0.027922396 0.027592432 1.2601981e-038
0.089114316 0.030167527 0.025630856 1.3980236e-038
0.090645932 0.03166366 0.024346137 1.3057916e-038
0.092166796 0.033159882 0.023061076 1.3063311e-038
0.093368068 0.035405111 0.021098271 1.3061151e-038
0.095176488 0.036152389 0.020490134 1.3151906e-038
0.096351013 0.038397759 0.018526517 1.6293396e-038
0.097826466 0.039894134 0.017240213 1.5644788e-038
0.099291332 0.041390605 0.01595358 1.4070263e-038
0.10106789 0.042138066 0.015344612 1.4804222e-038
0.10283925 0.042885579 0.014735539 1.3608917e-038
0.1036221 0.045880236 0.012092002 1.3517801e-038
0.10471401 0.04812593 0.010126008 1.3241934e-038
0.10612322 0.049622621 0.0088378806 1.3242292e-038
0.1081935 0.049621325 0.0089062043 1.3426323e-038
0.10890992 0.052616213 0.0062607261 1.3703265e-038
0.11028746 0.054113112 0.0049717026 1.4897127e-038
0.11199845 0.054861002 0.0043610712 1.443615e-038
0.11266452 0.057856075 0.0017141311 1.3887657e-038
0.1119121 0.063847326 -0.0036487035 1.0497287e-038
0.11182091 0.068340637 -0.0076551186 1.1513958e-038
0.11276178 0.07058683 -0.0096254693 1.6680145e-038
0.11475904 0.070585996 -0.0095590167 1.9538561e-038
0.1163966 0.071334288 -0.010171689 1.9353804e-038
0.11839195 0.071333565 -0.010105152 1.8891744e-038
0.12075322 0.070583828 -0.009359125 1.7045657e-038
0.12275212 0.070583217 -0.0092923185 1.575456e-038
0.1243806 0.071331762 -0.0099049741 1.7231106e-038
0.12563062 0.072829358 -0.011197304 2.0457249e-038
0.12762289 0.072828948 -0.011130466 1.9171932e-038
0.12999469 0.072079554 -0.010383725 1.9172651e-038
0.13237242 0.071330242 -0.0096366825 1.88957e-038
0.13437177 0.071330026 -0.0095693525 1.6588658e-038
0.13598463 0.072078913 -0.010181983 1.8985387e-038
0.13837224 0.071329802 -0.0094343424 1.9077574e-038
0.14076598 0.070580721 -0.0086863656 1.9076488e-038
0.14198017 0.072078913 -0.0099792257 1.8706253e-038
0.14358212 0.072828092 -0.010591851 1.8152001e-038
0.14437823 0.075075477 -0.012565646 1.6668234e-038
0.14717537 0.073577642 -0.011136645 1.4915439e-038
0.14998412 0.072079942 -0.009707192 1.3256663e-038
0.15198705 0.072080389 -0.0096388655 9.2155497e-039
0.15357938 0.072829962 -0.010251307 1.9914923e-038
0.15516718 0.073579609 -0.0108638 1.9542178e-038
0.15800093 0.072082236 -0.0094330665 1.9450702e-038
0.16042696 0.07133399 -0.008682997 1.9264505e-038
0.16285932 0.07058578 -0.0079325642 1.9448899e-038
0.16487309 0.070586741 -0.0078632105 1.7972338e-038
0.16688785 0.070587784 -0.007793705 1.3727406e-038
0.1684732 0.071337998 -0.0084056417 1.0779309e-038
0.17092055 0.070590153 -0.0076542227 1.4375254e-038
0.070763156 0.0086159119 0.041284967 1.3795111e-038
0.072703667 0.0093643125 0.04068277 1.3610722e-038
0.074364685 0.010863354 0.039406225 1.3151185e-038
0.07601478 0.012362478 0.038129322 1.3612163e-038
0.077374645 0.014612263 0.036177736 1.3978787e-038
0.078718252 0.016862037 0.034225687 1.4531244e-038
0.080330469 0.018361272 0.032947652 1.8038278e-038
0.081644364 0.020611141 0.030994711 1.81564e-038
0.083522439 0.021359779 0.030390715 1.8621701e-038
0.085687973 0.021357819 0.030461395 1.8529867e-038
0.087262332 0.022857213 0.029182283 1.7788702e-038
0.088527739 0.025107285 0.027227877 1.6117659e-038
0.090077914 0.026606716 0.025948094 1.630133e-038
0.09161742 0.028106194 0.024668016 1.9994552e-038
0.0928398 0.030356405 0.022712337 1.9996708e-038
0.09404619 0.032606669 0.020756185 1.1037526e-038
0.095236436 0.034856938 0.018799592 1.3612885e-038
0.097039446 0.035605993 0.018193504 1.8597567e-038
0.098520055 0.037105709 0.016911738 1.2781682e-038
0.099990062 0.038605466 0.01562967 1.4438324e-038
0.10177186 0.03935466 0.01502305 1.4069896e-038
0.10322331 0.040854521 0.013740486 1.452943e-038
0.10368064 0.044606458 0.010429728 1.370327e-038
0.10543333 0.04535576 0.0098223556 1.2874588e-038
0.10751413 0.045354445 0.0098910108 1.3243015e-038
0.10959508 0.045353174 0.0099597285 1.3704349e-038
0.10998327 0.049105391 0.006646893 1.3244091e-038
0.11102739 0.051356234 0.0046861097 1.3703624e-038
0.11205561 0.053607181 0.0027248273 1.4995438e-038
0.11341464 0.055107474 0.0014397013 1.8329575e-038
0.11336567 0.059610605 -0.0025524525 1.2617043e-038
0.11363679 0.06336309 -0.0058688037 1.7414816e-038
0.11388128 0.067115635 -0.0091859661 1.7694294e-038
0.11517165 0.068616167 -0.010473091 2.0183576e-038
0.11681172 0.069366083 -0.011083473 1.9630759e-038
0.11844685 0.070116095 -0.011693984 1.9076857e-038
0.12007694 0.070866123 -0.012304549 1.8519723e-038
0.12207038 0.070865534 -0.012237902 1.6675809e-038
0.12406423 0.070865005 -0.012171166 1.6857294e-038
0.1253113 0.072365895 -0.013459292 1.7686334e-038
0.1273008 0.072365485 -0.013392542 1.9813702e-038
0.1292908 0.072365142 -0.013325694 1.9631468e-038
0.13242657 0.07011281 -0.011225492 1.9170487e-038
0.13404137 0.070863269 -0.011836008 1.5757104e-038
0.13603844 0.07086312 -0.011768669 1.4743327e-038
0.13764635 0.071613722 -0.012379235 1.8432213e-038
0.14003463 0.070863023 -0.011633642 1.9814776e-038
0.14084785 0.073115125 -0.013600593 1.8798801e-038
0.14244157 0.073865987 -0.014211399 1.8705886e-038
0.14403053 0.074616864 -0.014822241 1.6025381e-038
0.14682499 0.073115721 -0.013397668 1.6207984e-038
0.15044323 0.070113339 -0.010615487 1.5103088e-038
0.15244877 0.070113763 -0.010547109 1.0687071e-038
0.15404357 0.070864938 -0.011157364 1.8532346e-038
0.15480541 0.073117569 -0.013125369 1.8808933e-038
0.15763649 0.071616866 -0.011699071 1.8900774e-038
0.16005972 0.07086692 -0.010951309 1.9083726e-038
0.16248928 0.070117071 -0.010203218 1.9266677e-038
0.16450019 0.07011798 -0.010134026 1.9172683e-038
0.16651212 0.070118971 -0.01006468 1.9355993e-038
0.16809456 0.070870727 -0.010674601 1.8342197e-038
0.17010579 0.07087189 -0.010605061 1.9262708e-038
0.074701838 0.0087620243 0.038317785 1.4162093e-038
0.076354451 0.010264516 0.03704536 1.462163e-038
0.077716738 0.01251926 0.035100434 1.4714546e-038
0.079062738 0.014774092 0.033154972 1.4807106e-038
0.080962315 0.015524369 0.032553848 1.6192201e-038
0.081993736 0.018531552 0.029935084 1.953969e-038
0.083874367 0.019281903 0.029333413 1.1520474e-038
0.085749634 0.02003229 0.028731607 1.0863947e-038
0.087915078 0.020030431 0.028802412 1.6863144e-038
0.089483842 0.021533212 0.027527535 1.991244e-038
0.091041908 0.023035988 0.026252393 2.0279779e-038
0.092285551 0.025291149 0.024303896 1.963081e-038
0.092900284 0.029050933 0.021008713 9.9344242e-039
0.094106302 0.031306189 0.019059071 1.5183813e-038
0.09591984 0.032056857 0.018455543 1.7399745e-038
0.098042533 0.032055266 0.018525254 1.7031321e-038
0.099848174 0.032806013 0.017921563 1.3150464e-038
0.10164854 0.033556804 0.017317753 1.3609639e-038
0.10279861 0.035812289 0.015366521 1.3979859e-038
0.10393266 0.038067833 0.013414815 1.4163888e-038
0.10472285 0.041075733 0.010788836 1.3797619e-038
0.10648344 0.04182671 0.010183926 1.3704349e-038
0.10790567 0.043330055 0.0089049283 1.2874243e-038
0.10998923 0.043328825 0.0089737857 1.2874599e-038
0.11071838 0.046336941 0.0063460167 1.3059344e-038
0.11210891 0.04784048 0.005066108 1.315225e-038
0.11314491 0.050096348 0.0031116144 1.4732505e-038
0.11485852 0.050847635 0.0025055169 1.7506258e-038
0.11516929 0.0546083 -0.00079880166 1.5757055e-038
0.11580559 0.057616703 -0.0034293253 1.6956329e-038
0.11606581 0.061377496 -0.0067351866 1.6957418e-038
0.11629944 0.06513834 -0.010041872 2.0552713e-038
0.11686672 0.068146937 -0.012674492 1.9999185e-038
0.11777579 0.070403263 -0.014632773 1.8524043e-038
0.11976598 0.07040263 -0.014566291 1.9997373e-038
0.12138829 0.071154371 -0.015174881 1.8703746e-038
0.12337665 0.071153849 -0.015108316 1.7873978e-038
0.12461807 0.072658092 -0.016392361 1.7871097e-038
0.1269785 0.071905322 -0.015650323 1.4363368e-038
0.12858658 0.072657347 -0.016259121 1.3722671e-038
0.13171707 0.070400037 -0.014165506 1.5940043e-038
0.13332628 0.071152136 -0.014774065 1.953533e-038
0.13570513 0.070399657 -0.014031125 1.6123751e-038
0.13731012 0.07115189 -0.014639655 7.6435576e-039
0.13969561 0.070399538 -0.013896326 1.1054781e-038
0.14090121 0.071904242 -0.015180876 1.7138204e-038
0.14249468 0.072656721 -0.015789572 1.815199e-038
0.14448416 0.0726569 -0.015722055 1.7040257e-038
0.14808832 0.069647789 -0.012949042 1.6394903e-038
0.15212101 0.065886423 -0.0094987508 1.4275858e-038
0.15413725 0.065886825 -0.0094300378 5.7139444e-039
0.15409638 0.069648966 -0.012744304 4.8892256e-039
0.15485784 0.0719065 -0.014705917 1.9547229e-038
0.15643795 0.072659492 -0.015314396 1.8808221e-038
0.15843323 0.072660185 -0.015246011 1.8899691e-038
0.16085193 0.071908593 -0.01450046 1.9267033e-038
0.16327699 0.071157135 -0.013754621 1.9634019e-038
0.16613634 0.069653429 -0.012331294 1.9725854e-038
0.16857699 0.068902135 -0.011584708 1.981841e-038
0.076417252 0.0089171138 0.035287034 1.5173725e-038
0.078058854 0.010422958 0.034018721 1.5358116e-038
0.079689518 0.011928879 0.032750044 1.4346128e-038
0.081594355 0.012680871 0.032151334 1.4163896e-038
0.082918465 0.014940737 0.030211808 1.3617208e-038
0.084516697 0.016446769 0.028942179 1.1219401e-038
0.086397193 0.017198863 0.02834278 1.361253e-038
0.088567935 0.017197056 0.028413832 1.2045204e-038
0.090141937 0.018703144 0.027143551 1.1219044e-038
0.091705129 0.02020932 0.025872927 1.1312317e-038
0.092650115 0.023223408 0.023260264 1.2049524e-038
0.093267068 0.026991481 0.019975983 1.2972913e-038
0.094475515 0.029251732 0.018032948 1.4727875e-038
0.095979758 0.030758034 0.016760593 1.7211038e-038
0.098416947 0.03000256 0.017501596 1.370148e-038
0.10022514 0.030755002 0.016900204 1.4990057e-038
0.10202808 0.031507488 0.016298695 1.3976627e-038
0.10285789 0.034521908 0.013682571 1.3058625e-038
0.10399163 0.036782429 0.011737364 1.5647633e-038
0.10543745 0.038289003 0.010463387 1.3902376e-038
0.1072033 0.039041676 0.0098608602 1.4730706e-038
0.10829727 0.041302346 0.0079145068 1.4719585e-038
0.10971133 0.042809069 0.0066396492 1.434757e-038
0.11077613 0.045069844 0.0046924413 1.416317e-038
0.11216647 0.046576712 0.0034168786 1.3154766e-038
0.11285803 0.049591511 0.00079667056 1.796976e-038
0.11422199 0.051098488 -0.00047965255 1.6313473e-038
0.11557548 0.052605465 -0.0017562194 1.7051039e-038
0.11727076 0.05335854 -0.0023606075 1.6129095e-038
0.11789619 0.056373604 -0.0049828021 1.6313484e-038
0.1181429 0.060142703 -0.0082782628 1.631384e-038
0.11836295 0.063911855 -0.011574555 1.8525121e-038
0.11855646 0.067681119 -0.014871703 2.0092089e-038
0.11945486 0.069942407 -0.016823767 2.009138e-038
0.12107432 0.070695817 -0.017430279 1.9354172e-038
0.12343097 0.069941334 -0.016690699 1.8981817e-038
0.12504598 0.070694856 -0.017297218 1.7223287e-038
0.12665603 0.071448475 -0.017903872 1.9714008e-038
0.12864049 0.071448132 -0.017837197 1.3259948e-038
0.1310073 0.070693836 -0.017096942 1.4176131e-038
0.13299553 0.070693612 -0.01702999 1.2792828e-038
0.1353716 0.069939479 -0.016289301 1.1779396e-038
0.1377537 0.069185399 -0.015548333 1.1699811e-038
0.14014189 0.068431392 -0.014807072 9.7669424e-039
0.14214075 0.068431422 -0.014739431 1.1243873e-038
0.14374217 0.069185488 -0.015345687 1.1705572e-038
0.14533888 0.069939628 -0.015952021 1.2162953e-038
0.14733447 0.069939852 -0.015884228 6.8130879e-039
0.15014328 0.068432204 -0.014467768 5.4330373e-039
0.15296377 0.066924587 -0.013050772 5.0693037e-039
0.15414923 0.068433017 -0.014331229 4.0562252e-039
0.15532477 0.069941476 -0.015611881 1.4387515e-038
0.15607317 0.072204016 -0.017567482 1.7980258e-038
0.15764584 0.072958648 -0.018173981 1.9359227e-038
0.16005901 0.072205409 -0.017430861 1.9450702e-038
0.16247857 0.071452253 -0.016687427 1.9267397e-038
0.1657605 0.069191203 -0.014593579 1.9450714e-038
0.078400992 0.0083233137 0.032932647 1.5082608e-038
0.080598831 0.0083214231 0.033004504 1.4714546e-038
0.082226597 0.0098306956 0.031740207 1.4162813e-038
0.083843492 0.011340043 0.030475536 1.3520689e-038
0.085159197 0.01360495 0.028542316 1.33363e-038
0.086458758 0.015869949 0.026608568 1.315011e-038
0.088333696 0.016623788 0.026011257 1.3795479e-038
0.08960633 0.018888859 0.024076695 1.4162461e-038
0.091163985 0.020398352 0.02281031 1.3611088e-038
0.092407033 0.022663508 0.020874854 1.2786727e-038
0.093940496 0.024173075 0.019607753 1.1958406e-038
0.095463268 0.025682731 0.018340306 1.4358384e-038
0.096975401 0.027192384 0.017072592 1.2053124e-038
0.098791413 0.02794653 0.016473595 1.7392908e-038
0.10028483 0.029456262 0.015205353 1.3609285e-038
0.10176765 0.030966036 0.013936808 1.4162093e-038
0.10259444 0.03398709 0.01132925 1.3151892e-038
0.10470133 0.033985764 0.011398768 1.5650507e-038
0.10648037 0.034740079 0.01079884 1.4181126e-038
0.10792339 0.036250073 0.0095291361 1.3532163e-038
0.10835552 0.040026926 0.006250076 1.3703993e-038
0.10943324 0.042292625 0.0043097446 1.4346482e-038
0.11117269 0.043047123 0.0037087139 1.3703626e-038
0.11290703 0.043801665 0.0031075687 1.9245779e-038
0.11394782 0.046067521 0.0011661856 1.0501207e-038
0.11531963 0.047577761 -0.00010549929 1.4838354e-038
0.11633139 0.049843721 -0.0020477297 1.6313118e-038
0.11838418 0.049842849 -0.0019794428 1.668227e-038
0.11937235 0.052108869 -0.0039222981 1.6957069e-038
0.119987 0.05513059 -0.0065361531 1.6312409e-038
0.11985968 0.05966365 -0.010491859 1.6774466e-038
0.12042667 0.062685445 -0.01310713 1.6773047e-038
0.12060665 0.066463009 -0.016393889 2.0367967e-038
0.12149707 0.068729304 -0.018339682 1.8984326e-038
0.12274291 0.070240088 -0.019615022 1.7782932e-038
0.12472624 0.070239648 -0.019548532 1.6574677e-038
0.12671001 0.070239253 -0.01948195 1.8240685e-038
0.12869433 0.070238918 -0.019415278 1.7596742e-038
0.13029718 0.070994258 -0.020019826 1.8514733e-038
0.13266462 0.070238419 -0.019281659 1.5191359e-038
0.13503799 0.069482595 -0.018543178 1.0488659e-038
0.13819748 0.067215621 -0.01646129 7.2722752e-039
0.14098118 0.065704301 -0.015050385 8.0127087e-039
0.14258979 0.066459984 -0.015654389 6.2642371e-039
0.14379556 0.067971304 -0.016930282 4.2380955e-039
0.14459032 0.070238352 -0.018878423 1.2627531e-038
0.14617676 0.070994176 -0.019482892 1.815745e-038
0.14735223 0.07250569 -0.020759558 1.935274e-038
0.14933574 0.072506033 -0.020692032 1.6677621e-038
0.15214349 0.070995204 -0.019279756 9.0308123e-039
0.15413404 0.070995688 -0.019211806 3.8721744e-039
0.15529115 0.072507471 -0.02048875 1.9085517e-038
0.15643835 0.074019372 -0.021765964 1.8991518e-038
0.15842074 0.074020058 -0.021698024 1.5393009e-038
0.16168 0.071753934 -0.019611567 1.2350204e-038
0.16752471 0.064954169 -0.013487132 2.0555263e-038
0.080096439 0.0084901368 0.029916655 1.4346482e-038
0.081718624 0.010002825 0.028656529 1.4255363e-038
0.083617732 0.01075828 0.028062152 1.3703272e-038
0.084930487 0.013028248 0.02613534 1.3611798e-038
0.086520247 0.014540989 0.02487429 1.3427406e-038
0.088099204 0.01605376 0.023612909 1.3150819e-038
0.089667402 0.017566619 0.022351183 1.4163893e-038
0.091224812 0.019079462 0.021089168 1.4438324e-038
0.092467614 0.02134962 0.019160245 1.4627036e-038
0.094307505 0.022105316 0.018564176 1.6938411e-038
0.095832773 0.023618322 0.017301187 1.6293403e-038
0.097347349 0.025131315 0.016037924 1.3065476e-038
0.098851264 0.026644401 0.01477432 1.6961092e-038
0.10034448 0.028157482 0.013510445 1.4195222e-038
0.10182706 0.029670604 0.012246263 1.242838e-038
0.1026535 0.032698292 0.0096473638 1.104542e-038
0.10476033 0.032697015 0.0097169476 1.6126971e-038
0.10653923 0.033453017 0.0091192164 1.6408259e-038
0.1086437 0.033451814 0.0091888178 1.0217481e-038
0.1094143 0.036479689 0.0065882672 1.3244102e-038
0.11016355 0.039507609 0.0039870623 1.4255011e-038
0.11156936 0.041021086 0.0027206535 1.68548e-038
0.11296465 0.042534564 0.0014539822 1.6952741e-038
0.11400513 0.044805385 -0.00048091845 7.3665966e-039
0.11537671 0.046318959 -0.0017482634 1.3821017e-038
0.11673784 0.047832627 -0.0030159373 1.5943272e-038
0.11844089 0.048589036 -0.0036156978 1.4836924e-038
0.11978381 0.050102755 -0.0048838202 7.1825599e-039
0.12147413 0.050859272 -0.0054838769 1.3083077e-038
0.12207797 0.053887654 -0.008089399 1.6218792e-038
0.12266076 0.056916092 -0.010695559 1.6403547e-038
0.12249061 0.061459109 -0.014639599 1.6771972e-038
0.12302565 0.064487666 -0.017247232 1.7694294e-038
0.1239108 0.066759005 -0.019186705 1.6310642e-038
0.12515424 0.068273097 -0.020457707 1.0224315e-038
0.12638737 0.069787286 -0.021729022 1.7785454e-038
0.12836885 0.069786958 -0.021662442 2.0182898e-038
0.12958683 0.071301214 -0.02293409 1.4831951e-038
0.13156407 0.071300998 -0.022867508 1.6669039e-038
0.13354185 0.071300827 -0.022800837 1.9069721e-038
0.13630052 0.069786191 -0.021395199 1.0029864e-038
0.13907072 0.068271562 -0.019989062 1.1686861e-038
0.14106123 0.068271577 -0.019921731 1.0951091e-038
0.1426542 0.069028959 -0.020524045 1.7600683e-038
0.14344049 0.071300879 -0.022466008 2.0003156e-038
0.14501865 0.07205838 -0.023068663 1.9079393e-038
0.14618577 0.073573157 -0.024341345 1.898539e-038
0.14816104 0.073573478 -0.024274126 1.8152736e-038
0.15096067 0.072059333 -0.022866465 1.7871105e-038
0.15377203 0.070545211 -0.021458276 1.71321e-038
0.15576066 0.070545726 -0.021390345 1.685516e-038
0.1564903 0.072818138 -0.023333678 1.9173392e-038
0.15889522 0.072061524 -0.022595251 2.0094279e-038
0.16385882 0.066761345 -0.017832626 1.2708918e-038
0.08178056 0.0086637326 0.026909031 1.453303e-038
0.08396744 0.0086620431 0.026980782 1.3519957e-038
0.085573144 0.01017811 0.025724614 1.3703993e-038
0.086874828 0.01245312 0.023804016 1.333593e-038
0.088456281 0.013969257 0.02254712 1.3519601e-038
0.089728348 0.016244339 0.020625615 1.3887306e-038
0.091586895 0.017001672 0.02003232 1.4808185e-038
0.092832103 0.019276829 0.018110005 1.4991497e-038
0.094981298 0.019275352 0.018180761 1.6100726e-038
0.096821107 0.020032782 0.017586956 1.5092338e-038
0.098655611 0.020790245 0.016993018 1.3432816e-038
0.099540517 0.023824435 0.014404587 1.5670352e-038
0.1010389 0.025340902 0.013145214 1.5211533e-038
0.10220655 0.027616255 0.01122063 1.1335008e-038
0.10335813 0.029891688 0.009295512 1.0868633e-038
0.10481923 0.031408239 0.0080350852 1.8530213e-038
0.10659797 0.032165933 0.0074395593 1.7332753e-038
0.10870241 0.032164779 0.0075092204 1.6306713e-038
0.10980623 0.034440383 0.0055827135 1.3151906e-038
0.11089411 0.03671604 0.0036557287 1.2873157e-038
0.11196615 0.038991693 0.0017283068 1.7409764e-038
0.11336386 0.040508546 0.00046603149 1.6677229e-038
0.11509547 0.041266493 -0.00013075559 7.5513466e-039
0.11647491 0.042783435 -0.0013935277 1.4650056e-038
0.11749413 0.045059275 -0.0033224975 1.6403555e-038
0.11884996 0.046576314 -0.0045859492 1.5296853e-038
0.12019539 0.048093349 -0.0058496515 1.2437711e-038
0.12188824 0.048851527 -0.0064474437 1.4189425e-038
0.12285496 0.051127613 -0.0083779665 1.5481227e-038
0.12416919 0.052644797 -0.009642534 1.6033681e-038
0.12400931 0.05719775 -0.013573347 1.5204285e-038
0.1249234 0.059473943 -0.015505402 1.658722e-038
0.12582172 0.061750233 -0.017437972 1.677161e-038
0.12633041 0.064785488 -0.020037735 1.8248179e-038
0.1268179 0.067820795 -0.022638148 1.7969453e-038
0.12842265 0.068579383 -0.023238383 1.8340397e-038
0.13002251 0.069338024 -0.023838721 2.0274727e-038
0.13123271 0.07085567 -0.025106302 1.6486449e-038
0.13282016 0.071614414 -0.025706923 2.0177512e-038
0.13440289 0.072373211 -0.026307629 1.7502041e-038
0.13676666 0.071614251 -0.025573669 1.4546001e-038
0.13874085 0.071614251 -0.025506902 1.399318e-038
0.14111406 0.070855394 -0.024772482 2.0273276e-038
0.14229023 0.072373331 -0.026040733 9.6725677e-039
0.14466767 0.071614593 -0.025306009 1.8619493e-038
0.14623822 0.072373733 -0.025906682 1.9999894e-038
0.14780423 0.073132932 -0.02650743 1.9262329e-038
0.15060122 0.07161548 -0.025104184 2.0271074e-038
0.1529953 0.070856988 -0.02436858 1.648673e-038
0.1553957 0.070098519 -0.023632634 1.3167007e-038
0.15780242 0.069340162 -0.022896424 1.2344098e-038
0.16190633 0.0655462 -0.019486314 1.8153504e-038
0.085344143 0.0096029248 0.023319716 1.3520323e-038
0.08722952 0.010361921 0.022729399 1.3243016e-038
0.089109473 0.011120899 0.022138976 1.3610719e-038
0.090984061 0.011879905 0.021548409 1.3610719e-038
0.092551842 0.013399463 0.020295514 1.4164972e-038
0.093500741 0.016440138 0.017717727 1.6471304e-038
0.095348462 0.017199289 0.017126339 1.8503928e-038
0.097190872 0.017958425 0.016534854 1.407134e-038
0.098715752 0.01947812 0.015280691 1.4991853e-038
0.099915184 0.021758426 0.013363559 1.2878922e-038
0.1014161 0.023278199 0.012108687 1.7317639e-038
0.10290628 0.024798049 0.010853453 1.7424238e-038
0.10374007 0.027839009 0.0082721412 1.4105197e-038
0.10552925 0.028598361 0.0076791374 1.2076527e-038
0.10698497 0.03011829 0.0064229406 1.8160356e-038
0.10909203 0.030117176 0.0064927489 2.0180372e-038
0.11019824 0.032397766 0.0045728288 1.306114e-038
0.11095221 0.035438944 0.0019891006 1.3150092e-038
0.11236297 0.03695903 0.00073159253 1.6580358e-038
0.11410493 0.037718624 0.00013730419 1.6122991e-038
0.11549734 0.039238844 -0.0011207506 1.8524057e-038
0.11653212 0.041519653 -0.0030427915 1.7970883e-038
0.11755107 0.043800466 -0.0049652718 1.7602823e-038
0.11925921 0.044560231 -0.0055604787 1.7510274e-038
0.12060709 0.046080634 -0.0068197991 1.1145927e-038
0.12230247 0.046840485 -0.0074153249 1.5756759e-038
0.1236322 0.048360936 -0.0086751003 1.529647e-038
0.12495156 0.049881473 -0.0099352077 1.5387591e-038
0.12589455 0.05216261 -0.011859927 1.4280888e-038
0.12682185 0.054443758 -0.01378507 1.1791607e-038
0.12773338 0.056724995 -0.015710721 1.6031882e-038
0.12750696 0.061287947 -0.019630624 1.6402802e-038
0.12762547 0.065090403 -0.022886844 1.6496814e-038
0.12809694 0.068132348 -0.025479123 2.0182484e-038
0.12969394 0.068892643 -0.026077401 1.9077586e-038
0.13051632 0.071174137 -0.028005727 1.8800641e-038
0.13171066 0.072695084 -0.029269433 1.8703802e-038
0.13328506 0.073455572 -0.029868314 1.6118387e-038
0.13603374 0.071934357 -0.028471511 2.0081364e-038
0.1380024 0.071934342 -0.028404947 1.740876e-038
0.14037023 0.071173839 -0.027672861 1.9260916e-038
0.14194186 0.071934491 -0.028271519 1.5943286e-038
0.14431651 0.0711741 -0.027539056 1.8157765e-038
0.14629078 0.071174316 -0.027472008 2.0277924e-038
0.14826581 0.071174584 -0.027404867 1.9541435e-038
0.15024166 0.07117492 -0.027337607 1.96322e-038
0.1530477 0.069654204 -0.02593831 2.0275771e-038
0.15628277 0.067372948 -0.023872435 2.101046e-038
0.16163544 0.061288953 -0.018475097 1.2708189e-038
0.087584212 0.0082673412 0.02165046 1.3979502e-038
0.089466736 0.0090280799 0.021062326 1.3702555e-038
0.091642678 0.0090266326 0.021134024 1.4347924e-038
0.092914157 0.011311713 0.019225661 1.3979859e-038
0.09447372 0.012834708 0.017976886 1.4166411e-038
0.095715702 0.015119856 0.016067615 1.7032755e-038
0.097560667 0.015880745 0.015478408 1.4715265e-038
0.099088088 0.017403793 0.014228712 1.4715621e-038
0.10028989 0.019689094 0.012318185 1.3705435e-038
0.10115804 0.022736611 0.0097465999 1.15907e-038
0.10296571 0.023497591 0.0091563473 1.2905192e-038
0.10444509 0.025020782 0.0079052169 1.733203e-038
0.10591383 0.026544057 0.0066537326 1.0224692e-038
0.10704366 0.028829506 0.0047410629 1.6217765e-038
0.10881963 0.029590629 0.004149924 1.2976158e-038
0.11059038 0.030351833 0.0035586187 1.4070617e-038
0.11168306 0.032637402 0.0016448491 1.4993271e-038
0.11309899 0.034160871 0.00039183511 1.5842084e-038
0.11450438 0.035684332 -0.00086144521 1.9167256e-038
0.11589929 0.037207883 -0.002115062 1.7787214e-038
0.11728372 0.038731433 -0.0033689416 1.787941e-038
0.11795782 0.041779451 -0.0059464318 1.7326955e-038
0.11966851 0.042540886 -0.0065393662 1.4468891e-038
0.12101886 0.044064611 -0.0077942624 7.4588118e-039
0.1227168 0.044826135 -0.0083875172 1.5850027e-038
0.12368833 0.047112096 -0.010304876 1.6034756e-038
0.12537085 0.047873754 -0.010898574 1.5848568e-038
0.12595019 0.050922044 -0.01347891 1.4003578e-038
0.12761474 0.05168375 -0.014073055 9.1164891e-039
0.12890284 0.053207699 -0.015329669 1.4831542e-038
0.12943229 0.056256134 -0.017911509 1.5202098e-038
0.12956379 0.060066819 -0.021156529 1.4647858e-038
0.12966889 0.06387756 -0.024402378 1.3168777e-038
0.13051201 0.066163942 -0.026323622 1.889211e-038
0.1309545 0.069212578 -0.028908139 1.8063785e-038
0.13176367 0.07149902 -0.030830359 1.787653e-038
0.13333793 0.072261155 -0.031427093 2.018036e-038
0.13569359 0.071498848 -0.030697677 1.2798989e-038
0.13765948 0.071498834 -0.030631211 1.9254837e-038
0.14002459 0.070736669 -0.029901389 1.7785431e-038
0.14159337 0.07149896 -0.030498002 1.9633276e-038
0.14396529 0.0707369 -0.029767813 2.0001337e-038
0.14553013 0.071499303 -0.030364422 1.9357767e-038
0.14790899 0.070737347 -0.02963385 1.9265934e-038
0.15029404 0.069975458 -0.028902989 1.9540725e-038
0.15351482 0.06768918 -0.026844174 1.9353818e-038
0.15883997 0.061591972 -0.021465123 1.3815962e-038
0.092975006 0.0099844541 0.017493587 1.4807461e-038
0.094838589 0.010746946 0.0169072 1.4354403e-038
0.095776059 0.013800962 0.014346452 1.4356199e-038
0.097930521 0.013799696 0.014417661 1.3337004e-038
0.099148124 0.016089961 0.012514152 1.3980212e-038
0.10066467 0.017616395 0.011268515 1.2514058e-038
0.10153515 0.020670556 0.0087056886 1.962784e-038
0.10366574 0.02066941 0.0087762466 1.7608134e-038
0.10547336 0.021432165 0.0081882151 1.7698192e-038
0.10694999 0.022958737 0.0069414061 6.4403397e-039
0.10808761 0.025249219 0.0050354758 1.0030216e-038
0.10954035 0.026775859 0.0037879508 1.444048e-038
0.11098257 0.028302541 0.0025401195 1.4529799e-038
0.11207765 0.030593138 0.00063290168 1.3519943e-038
0.11349605 0.032119941 -0.00061567221 1.8975671e-038
0.11524586 0.032882899 -0.0012052932 1.8247468e-038
0.11630134 0.035173569 -0.0031136591 1.594258e-038
0.11768821 0.036700491 -0.0043631466 1.741843e-038
0.1183647 0.039755125 -0.0069319108 1.7143284e-038
0.12007791 0.040518243 -0.0075225658 1.5575239e-038
