# .PCD v0.7 - Point Cloud Data file format
VERSION 0.7
FIELDS x y z rgb
SIZE 4 4 4 4
TYPE F F F F
COUNT 1 1 1 1
WIDTH 954
HEIGHT 1
VIEWPOINT 0 0 0 1 0 0 0
POINTS 954
DATA ascii
-0.074505053 0.1380133 0.068846084 1.3739967e-038
-0.072504222 0.1380097 0.068909049 1.2539619e-038
-0.070395917 0.13734619 0.069759101 1.4659035e-038
-0.068503127 0.13800234 0.06903474 1.4749063e-038
-0.066615939 0.13865842 0.068310142 1.4840898e-038
-0.064850159 0.13997433 0.066797853 1.5577743e-038
-0.06250295 0.13799092 0.069222771 1.4840898e-038
-0.057836942 0.12347007 0.086613022 1.4840898e-038
-0.16258298 0.13887535 0.062056717 2.9513069e-039
-0.16045634 0.14482713 0.055093933 1.4475364e-038
-0.15842487 0.14813343 0.05125415 1.51182e-038
-0.15647374 0.14747158 0.052101046 1.5394072e-038
-0.15450493 0.14813232 0.051385283 1.5208959e-038
-0.15255186 0.14680895 0.053013578 1.4379199e-038
-0.15058725 0.14614685 0.05386059 1.2350895e-038
-0.14861926 0.146146 0.053926036 1.1521135e-038
-0.14665133 0.14614508 0.053991381 1.355052e-038
-0.14466861 0.14482132 0.055620268 1.4749063e-038
-0.14267507 0.14349753 0.057249386 1.3275732e-038
-0.14069645 0.14349633 0.057314735 1.3367928e-038
-0.13871792 0.14349505 0.057379991 1.3920377e-038
-0.13675775 0.14415504 0.056662939 1.4933809e-038
-0.13478208 0.14415361 0.056727886 1.4749417e-038
-0.1328302 0.14481343 0.056010336 1.5118196e-038
-0.13080458 0.14348914 0.057639871 1.5301508e-038
-0.12879734 0.14282608 0.05848708 1.5485179e-038
-0.12681663 0.14282432 0.058551777 1.5577732e-038
-0.12483601 0.14282247 0.058616344 1.5300066e-038
-0.12289278 0.14348193 0.057898022 1.5668849e-038
-0.12083512 0.14215718 0.059528053 1.5393338e-038
-0.11885214 0.1421551 0.059592403 1.5394415e-038
-0.1169147 0.14281434 0.058873609 1.5301863e-038
-0.11483841 0.1414893 0.060503989 1.4933437e-038
-0.11270058 0.13950282 0.062917791 1.5117829e-038
-0.11070727 0.13950044 0.062982097 1.5209304e-038
-0.10877036 0.14015935 0.062262855 1.5117474e-038
-0.10689799 0.14147961 0.060759872 1.4472473e-038
-0.10478987 0.14015423 0.062390774 1.4565026e-038
-0.10279986 0.14015155 0.062454578 1.4933454e-038
-0.10074288 0.13948742 0.063302062 1.4289528e-038
-0.098750465 0.13948458 0.06336575 1.4566115e-038
-0.096540608 0.13749744 0.065781221 1.4290248e-038
-0.094465159 0.13683304 0.066628993 1.3184963e-038
-0.092462391 0.13683003 0.066692784 1.4568255e-038
-0.090701781 0.13881123 0.064403914 1.3830335e-038
-0.088707492 0.13880807 0.064467244 1.4749772e-038
-0.086541235 0.137482 0.066099226 1.3644879e-038
-0.084275521 0.13549438 0.068515949 1.4750508e-038
-0.08217673 0.1348296 0.069364011 1.4566839e-038
-0.080355331 0.13614914 0.067858264 1.2632172e-038
-0.078351125 0.1361457 0.067921542 1.0419128e-038
-0.076347128 0.13614218 0.067984715 1.0696069e-038
-0.074240945 0.13547713 0.068832777 1.0975173e-038
-0.072129577 0.13481206 0.06968087 9.1265882e-039
-0.070012994 0.1341469 0.070529029 1.0326561e-038
-0.068222538 0.13546613 0.06902194 1.4841609e-038
-0.066329964 0.1361239 0.068299606 1.511712e-038
-0.064443 0.13678157 0.067577079 1.4840178e-038
-0.061968774 0.13413174 0.070781283 1.4840898e-038
-0.057290085 0.11957473 0.08812473 1.502529e-038
-0.16251221 0.13832976 0.059700511 3.0438599e-039
-0.16038881 0.14429632 0.052756932 1.4291693e-038
-0.15837178 0.1469478 0.049706865 1.45679e-038
-0.15642922 0.14562133 0.051330764 1.4933454e-038
-0.15446976 0.14495777 0.052175689 1.5301511e-038
-0.15250489 0.14429408 0.053020656 1.5116764e-038
-0.15053466 0.14363031 0.053865775 1.4840177e-038
-0.14856318 0.14429247 0.053151853 1.3826026e-038
-0.14658281 0.14296553 0.054776486 1.2720759e-038
-0.14459915 0.14230153 0.055621665 1.3458327e-038
-0.1425999 0.14097443 0.057246666 1.4934898e-038
-0.14064161 0.14229922 0.055752508 1.4197688e-038
-0.13864727 0.14163497 0.056597706 1.3460123e-038
-0.13668433 0.1422966 0.055882901 1.4657946e-038
-0.13468474 0.14163215 0.05672805 1.4565751e-038
-0.13272738 0.14229363 0.056012869 1.4196967e-038
-0.13066955 0.14030299 0.058418609 1.4472833e-038
-0.12868316 0.1403013 0.058483593 1.2720753e-038
-0.12669688 0.14029954 0.058548469 1.4932725e-038
-0.12474537 0.14096075 0.057832621 1.5392262e-038
-0.12272467 0.14029579 0.058677878 1.5669205e-038
-0.1206586 0.13896775 0.060303915 1.5670282e-038
-0.11866734 0.13896567 0.060368534 1.465685e-038
-0.11667623 0.13896349 0.060433041 1.5210024e-038
-0.11468524 0.13896127 0.060497452 1.5302217e-038
-0.11264346 0.13829595 0.061342869 1.5210024e-038
-0.11054275 0.13696745 0.062969565 1.4840884e-038
-0.10860038 0.13762803 0.062252678 1.484053e-038
-0.10660452 0.13762547 0.06231685 1.4564666e-038
-0.10454704 0.13695984 0.063162401 1.2628566e-038
-0.10241982 0.13563107 0.064789519 1.0508788e-038
-0.10048348 0.13629135 0.064072058 1.1338915e-038
-0.098482825 0.13628852 0.064136036 1.0509509e-038
-0.09633711 0.13495953 0.065763474 9.9570552e-039
-0.094180711 0.13363044 0.067391276 8.8517852e-039
-0.092013657 0.13230127 0.069019228 8.0256245e-039
-0.090239637 0.13428736 0.066737205 8.1149404e-039
-0.088231705 0.1342842 0.066800997 8.0220245e-039
-0.086223945 0.13428098 0.066864684 1.0233641e-038
-0.084038645 0.13295153 0.068492904 8.9465032e-039
-0.082025848 0.1329482 0.068556622 6.9189308e-039
-0.08010751 0.13360789 0.067837775 8.2067787e-039
-0.078000806 0.13294134 0.068683773 7.9302016e-039
-0.076088279 0.13360092 0.067964584 6.8281673e-039
-0.073976547 0.13293424 0.068810605 8.3962231e-039
-0.071964711 0.13293064 0.068873934 7.4659907e-039
-0.069845244 0.13226387 0.069720089 9.4942805e-039
-0.067831114 0.13226014 0.06978333 1.4841613e-038
-0.065817177 0.13225637 0.069846511 1.5208239e-038
-0.064035319 0.13357881 0.068343326 1.5116399e-038
-0.061433941 0.13025928 0.07232248 1.4656507e-038
-0.16250901 0.13512869 0.060455307 3.2278938e-039
-0.16036382 0.14177465 0.052754477 1.4660118e-038
-0.1583301 0.14509737 0.048936233 1.5026007e-038
-0.15638454 0.14376763 0.050555937 1.3827464e-038
-0.15442215 0.14310239 0.051398806 1.3643066e-038
-0.15246093 0.1411078 0.053796127 1.3919297e-038
-0.15048176 0.14110704 0.053862061 1.4011855e-038
-0.14850049 0.14044157 0.054705244 1.4195889e-038
-0.14651383 0.13977601 0.055548489 1.2905875e-038
-0.14451425 0.13844568 0.057169344 1.16155e-038
-0.14252444 0.13844457 0.057235196 1.1708772e-038
-0.14053471 0.13844337 0.057300929 6.9142476e-039
-0.13854504 0.1384421 0.057366554 9.957058e-039
-0.13655545 0.13844073 0.057432067 1.1063406e-038
-0.13456596 0.1384393 0.057497457 1.0510229e-038
-0.1326004 0.1391024 0.056784675 8.5741193e-039
-0.13058721 0.13843617 0.057627946 8.6684855e-039
-0.12856869 0.13776982 0.05847124 1.0787169e-038
-0.12654486 0.13710341 0.059314635 1.4380991e-038
-0.12455042 0.13710159 0.059379689 1.4749412e-038
-0.1225561 0.13709965 0.059444603 1.5024913e-038
-0.12052173 0.13643295 0.060288075 1.4841242e-038
-0.11852494 0.13643086 0.060352877 1.4749766e-038
-0.11657384 0.13709341 0.059638783 1.4841963e-038
-0.11462829 0.13775584 0.05892444 1.5024568e-038
-0.11253531 0.13642417 0.060546692 1.4932374e-038
-0.11043163 0.13509242 0.062169146 1.4748692e-038
-0.10843008 0.13508996 0.062233645 1.5209312e-038
-0.10636955 0.13442275 0.063077196 1.4656862e-038
-0.10430375 0.13375546 0.06392087 1.0231477e-038
-0.10216812 0.13242336 0.065544032 1.0323675e-038
-0.1002236 0.1330853 0.064828992 9.124775e-039
-0.098284692 0.13374719 0.064113632 9.4946365e-039
-0.09627866 0.13374431 0.064177722 1.0048175e-038
-0.094197407 0.13307661 0.06502144 1.0599555e-038
-0.09203279 0.13174418 0.066645049 9.6786872e-039
-0.090019152 0.13174109 0.066709131 1.1247794e-038
-0.088005692 0.13173792 0.066773087 1.1986437e-038
-0.085992426 0.1317347 0.066836946 1.2447415e-038
-0.083801448 0.13040192 0.06846112 1.4011143e-038
-0.081783123 0.1303986 0.068525009 1.4197334e-038
-0.079859376 0.13105994 0.067808427 1.4106582e-038
-0.077747077 0.13039172 0.068652518 1.3093859e-038
-0.07562957 0.12972346 0.069496684 1.4288808e-038
-0.073711812 0.13038464 0.068779759 1.3737076e-038
-0.071799673 0.13104582 0.068062529 1.3553391e-038
-0.069677345 0.13037734 0.068906657 1.4563591e-038
-0.067549795 0.12970886 0.06975086 1.4564312e-038
-0.065530367 0.12970509 0.06981422 1.5208239e-038
-0.063511141 0.12970127 0.06987752 1.4839456e-038
-0.060898453 0.1263735 0.073846303 1.4655787e-038
-0.16250536 0.13191757 0.061196949 3.2282511e-039
-0.16031042 0.14057879 0.051193833 1.4383536e-038
-0.15828827 0.14324346 0.048161067 1.3642718e-038
-0.1563397 0.14191043 0.049776595 1.2812949e-038
-0.15438624 0.139911 0.052167326 1.355087e-038
-0.1524101 0.13924406 0.053008415 1.3366479e-038
-0.15042906 0.13791071 0.054624718 1.3089899e-038
-0.14843942 0.1372436 0.055466019 1.355052e-038
-0.14643949 0.13591009 0.057082664 8.203176e-039
-0.1444364 0.13524278 0.057924271 9.2191356e-039
-0.14245905 0.13657424 0.056439385 9.6801165e-039
-0.14046645 0.13657305 0.056505211 8.1113713e-039
-0.13847394 0.13657176 0.05657094 9.1265854e-039
-0.136463 0.13590415 0.057412304 7.5599716e-039
-0.1344467 0.13523637 0.058253743 9.957058e-039
-0.13247295 0.13590118 0.057543363 8.758512e-039
-0.13045141 0.13523325 0.058384787 1.1247072e-038
-0.12848328 0.1358979 0.057674002 1.2353776e-038
-0.12645651 0.13522981 0.058515389 1.4750126e-038
-0.12442445 0.13456164 0.059356794 1.4749412e-038
-0.12238706 0.13389345 0.060198288 1.493308e-038
-0.12038457 0.13389143 0.060263384 1.4657572e-038
-0.11842517 0.13455565 0.059551846 1.4841968e-038
-0.11642566 0.13455349 0.059616648 1.5118556e-038
-0.11442629 0.13455124 0.05968133 1.4841607e-038
-0.11232489 0.13321634 0.061299562 1.493308e-038
-0.11026658 0.13254765 0.062141124 1.4472105e-038
-0.10831597 0.13321148 0.061428796 1.4747981e-038
-0.10625254 0.13254264 0.062270351 1.474906e-038
-0.10418384 0.13187365 0.063112006 1.3734911e-038
-0.10198059 0.12987201 0.065508187 1.2628563e-038
-0.10009796 0.13120189 0.064018138 1.4195889e-038
-0.098156288 0.13186541 0.063305072 1.4288085e-038
-0.096292987 0.13319525 0.061814193 1.4380635e-038
-0.094214246 0.13252595 0.06265568 1.4473555e-038
-0.092130266 0.13185655 0.06349729 1.4104417e-038
-0.090041071 0.13118711 0.064338945 1.4197673e-038
-0.087946601 0.13051762 0.065180682 1.4198397e-038
-0.085933231 0.13051441 0.065244593 1.4289883e-038
-0.083741985 0.12917836 0.066864468 1.2906229e-038
-0.081723578 0.12917504 0.066928372 1.2721482e-038
-0.079705365 0.12917161 0.066992179 1.3182816e-038
-0.077590175 0.1285018 0.067834213 1.1524367e-038
-0.075469807 0.12783189 0.068676293 8.4822796e-039
-0.073446758 0.12782833 0.06874004 1.1339268e-038
-0.07152921 0.12849109 0.068025194 1.3551963e-038
-0.069401301 0.12782103 0.068867318 1.4379909e-038
-0.067268178 0.12715091 0.069709577 1.447175e-038
-0.065129869 0.12648071 0.070551887 1.456287e-038
-0.063102454 0.12647688 0.070615456 1.4101891e-038
-0.060005888 0.12047519 0.077689648 1.4656139e-038
-0.1625514 0.12669268 0.064242788 3.2322042e-039
-0.16034098 0.13537525 0.054268077 1.0234739e-038
-0.15829141 0.13871442 0.050471857 1.2536368e-038
-0.15632899 0.13737808 0.052083541 1.3089899e-038
-0.15434988 0.13670954 0.052922722 1.3181366e-038
-0.15236539 0.13604096 0.053761944 1.3366477e-038
-0.15037549 0.13537228 0.054601222 1.2352331e-038
-0.14837793 0.13403556 0.056213673 1.3089542e-038
-0.14637457 0.13336669 0.057053175 1.1614054e-038
-0.14437355 0.13336566 0.057119496 1.069462e-038
-0.14238305 0.1340325 0.056412417 1.2631817e-038
-0.1403849 0.1340313 0.056478433 1.2817278e-038
-0.13837095 0.1333621 0.057317846 1.3643438e-038
-0.13635163 0.13269281 0.058157332 1.4656161e-038
-0.13434829 0.13269138 0.058223221 1.3643804e-038
-0.13234505 0.13268986 0.058288969 1.2630731e-038
-0.13031515 0.13202032 0.059128489 1.4289884e-038
-0.12830938 0.13201863 0.059194107 1.1246708e-038
-0.12630372 0.13201687 0.059259642 1.4657578e-038
-0.12429817 0.13201502 0.059325051 1.4380991e-038
-0.12225515 0.13134515 0.060164567 1.4657932e-038
-0.12020682 0.13067517 0.061004221 1.4012208e-038
-0.11823921 0.13134107 0.060295049 1.4291699e-038
-0.11623144 0.13133891 0.060360134 1.4657946e-038
-0.11427223 0.13200462 0.059650533 1.41966e-038
-0.11221629 0.13133436 0.060489986 1.4749413e-038
-0.1102628 0.13199994 0.05978002 1.4379552e-038
-0.1082583 0.13199748 0.059844598 1.4655421e-038
-0.10625396 0.13199496 0.059909087 1.4747617e-038
-0.10412575 0.13065641 0.061523553 1.4471394e-038
-0.10192218 0.1286498 0.063913286 1.4471394e-038
-0.099972166 0.12931503 0.063202754 1.4471394e-038
-0.098027758 0.12998018 0.062491916 1.4747981e-038
-0.096088924 0.13064529 0.061780844 1.437992e-038
-0.094080158 0.13064234 0.061844919 1.4380638e-038
-0.09199328 0.12997136 0.062684461 1.2904799e-038
-0.089901172 0.1293003 0.063524075 1.2351977e-038
-0.087720133 0.1279611 0.065139517 1.2629641e-038
-0.08570125 0.12795788 0.065203585 1.2261935e-038
-0.083593436 0.12728661 0.066043466 1.1247427e-038
-0.08157222 0.12728328 0.066107474 1.2537797e-038
-0.079362147 0.12594384 0.067723475 1.3551949e-038
-0.077141427 0.1246043 0.069339797 8.5730347e-039
-0.074810155 0.1225967 0.071732536 1.2168674e-038
-0.072873436 0.12326115 0.071020514 1.1060897e-038
-0.070942335 0.12392554 0.070308231 8.0180869e-039
-0.069016859 0.12458991 0.069595732 1.4288794e-038
-0.066986226 0.12458616 0.069659524 1.4104757e-038
-0.064842343 0.12391433 0.070499897 1.4103322e-038
-0.062577069 0.12257438 0.07211709 1.4010416e-038
-0.1624801 0.12613477 0.061870608 4.2445639e-039
-0.16030103 0.13349962 0.053464461 1.1617674e-038
-0.1582602 0.13617742 0.050449498 1.2261932e-038
-0.15630902 0.13349868 0.053598244 1.29977e-038
-0.15431306 0.13349807 0.053664964 1.419516e-038
-0.15231715 0.13349739 0.053731561 1.2905145e-038
-0.15032162 0.13282703 0.054568935 1.2812952e-038
-0.1483207 0.13215661 0.055406317 1.3181737e-038
-0.14630933 0.13081658 0.057014808 1.2813678e-038
-0.14431055 0.1314851 0.056310229 8.5752067e-039
-0.14229624 0.13081443 0.05714773 8.2064242e-039
-0.14030302 0.13148281 0.056442756 1.290912e-038
-0.13828343 0.13081196 0.057280224 1.0696069e-038
-0.13629583 0.13148019 0.056574848 1.1247805e-038
-0.1342496 0.13013962 0.058183827 9.8648623e-039
-0.13221668 0.1294685 0.059021462 9.1272945e-039
-0.13020526 0.12946688 0.059087384 1.0048165e-038
-0.12822343 0.13013481 0.058381349 1.0323673e-038
-0.12624715 0.13080262 0.057675067 1.4657578e-038
-0.12420654 0.1301312 0.058512483 1.4288439e-038
-0.12216059 0.12945966 0.059350029 1.391966e-038
-0.12006896 0.12811849 0.060959738 6.2717425e-039
-0.11800971 0.12744682 0.061797459 6.3607165e-039
-0.11603676 0.12811425 0.061090562 6.452901e-039
-0.11397235 0.12744242 0.061928242 1.3182816e-038
-0.11205632 0.12877931 0.060448464 1.4288439e-038
-0.11009736 0.12944652 0.059740808 1.447247e-038
-0.10814396 0.13011372 0.059032872 1.4379199e-038
-0.10607743 0.12944153 0.059870258 1.4287359e-038
-0.10388146 0.12743011 0.062253438 1.3919299e-038
-0.10173417 0.12608817 0.063864142 1.438028e-038
-0.099643707 0.1254158 0.064701989 1.4195889e-038
-0.097618192 0.125413 0.064766824 1.4195889e-038
-0.095665798 0.12607971 0.064058304 1.4288794e-038
-0.093643352 0.12607676 0.064122863 1.4287004e-038
-0.091542736 0.12540412 0.064960696 1.3181031e-038
-0.089355841 0.12406175 0.066572078 1.2261226e-038
-0.087242052 0.12338892 0.067410223 1.2446692e-038
-0.085123032 0.12271602 0.068248369 1.3459403e-038
-0.083177164 0.1233824 0.067539185 1.3183536e-038
-0.081236914 0.12404875 0.066829689 1.3091341e-038
-0.079207674 0.12404536 0.066893861 1.3367572e-038
-0.077081315 0.12337218 0.067731999 1.4103342e-038
-0.074649677 0.12069002 0.070892423 1.3919316e-038
-0.072402053 0.11934704 0.072505146 1.4193378e-038
-0.070460111 0.12001307 0.071795389 4.2380689e-039
-0.068631947 0.12134877 0.070310988 1.4196598e-038
-0.066593118 0.12134504 0.07037507 1.4104757e-038
-0.064327382 0.12000184 0.071988121 1.4287713e-038
-0.062051035 0.1186586 0.073601387 1.4010416e-038
-0.16242549 0.12490873 0.060270589 4.7970174e-039
-0.16030249 0.12960684 0.054960996 1.2170845e-038
-0.15825094 0.13229124 0.051954985 1.2722544e-038
-0.15628847 0.1296059 0.055095516 1.2537078e-038
-0.15427013 0.13094769 0.053625587 1.1982465e-038
-0.15226862 0.13094702 0.053692404 1.2627838e-038
-0.15026718 0.13094625 0.053759091 1.3458321e-038
-0.14825843 0.12893181 0.056131996 1.2259781e-038
-0.14624378 0.12825963 0.056967624 7.5585268e-039
-0.14423165 0.12825862 0.057034347 8.2067787e-039
-0.14223015 0.12892875 0.056331865 8.2996932e-039
-0.14020756 0.12825631 0.057167433 7.2855413e-039
-0.13821167 0.12892631 0.056464579 8.8525125e-039
-0.13620253 0.12892492 0.056530721 8.48373e-039
-0.13417204 0.12825225 0.057366252 1.014289e-038
-0.13208787 0.12623709 0.059740774 1.0511672e-038
-0.13006815 0.12623549 0.059806976 1.3830349e-038
-0.12807815 0.12690502 0.059103422 1.2446692e-038
-0.12609369 0.12757449 0.058399573 1.4012575e-038
-0.12407973 0.12757264 0.058465265 1.4196968e-038
-0.12206589 0.12757072 0.058530875 1.4196598e-038
-0.11993081 0.12555499 0.060906459 1.3643794e-038
-0.11782276 0.12421046 0.062512346 1.3920746e-038
-0.11579575 0.12420831 0.062578082 1.2446336e-038
-0.11381746 0.12487729 0.061873414 6.5454511e-039
-0.11189604 0.12621751 0.060398061 1.4104772e-038
-0.10987759 0.12621512 0.060463198 1.3919302e-038
-0.1078593 0.12621267 0.060528256 1.3919302e-038
-0.10578171 0.12553886 0.061363898 1.4195892e-038
-0.1036367 0.12419376 0.062970281 1.4196614e-038
-0.10148101 0.12284857 0.064576939 1.2631082e-038
-0.099382207 0.12217452 0.065412976 1.3276821e-038
-0.097348452 0.12217169 0.065478057 1.1893177e-038
-0.095387883 0.12284011 0.064771935 9.4960882e-039
-0.093205765 0.12149456 0.066379108 1.3368293e-038
-0.091248274 0.1221628 0.065672763 1.3365778e-038
-0.088971838 0.12014588 0.068051465 6.453987e-039
-0.08701472 0.120814 0.067344934 5.8150902e-039
-0.084803551 0.11946821 0.068952672 1.1158477e-038
-0.082938805 0.12080749 0.067474283 4.3349252e-039
-0.080809169 0.12013287 0.068310522 4.4253286e-039
-0.078863665 0.12080077 0.06760332 1.382964e-038
-0.076826416 0.12079731 0.0676677 1.3735645e-038
-0.074388951 0.1181085 0.070819743 1.2906594e-038
-0.072238453 0.11743362 0.071656361 1.3735645e-038
-0.070188291 0.11742996 0.071720906 3.504101e-039
-0.068463035 0.11944029 0.069468819 1.3736001e-038
-0.066199526 0.11809386 0.071077585 1.4012201e-038
-0.063925438 0.11674741 0.07268656 1.4471384e-038
-0.061408024 0.11405814 0.075840734 1.3734182e-038
-0.16237088 0.12368251 0.058670327 3.2289714e-039
-0.16024825 0.12839213 0.053375725 1.3461584e-038
-0.15821896 0.12973738 0.051910702 1.3827816e-038
-0.15623395 0.12839119 0.053510267 1.3181009e-038
-0.15422121 0.12906343 0.052811012 1.336468e-038
-0.15221398 0.12973559 0.052111465 1.4010416e-038
-0.15021297 0.12771632 0.054477781 1.3918942e-038
-0.14819825 0.12636973 0.056077939 1.2628566e-038
-0.1461727 0.12502311 0.057678297 1.1431109e-038
-0.14416024 0.12569493 0.056978479 1.2723644e-038
-0.14213192 0.125021 0.057812195 1.2724719e-038
-0.14009824 0.1243469 0.058645979 1.2632884e-038
-0.13809143 0.12501854 0.05794562 1.3092075e-038
-0.13607131 0.12501718 0.058012165 1.3460137e-038
-0.13402973 0.12434284 0.0588459 1.2354865e-038
-0.13198283 0.12366848 0.059679687 1.1525824e-038
-0.12995757 0.12366687 0.059746075 1.3093147e-038
-0.12796208 0.12433805 0.059044849 1.0326901e-038
-0.12593973 0.12433629 0.059110932 1.3828906e-038
-0.12391751 0.12433444 0.059176922 1.1247428e-038
-0.12189541 0.12433252 0.059242785 1.3181737e-038
-0.11991395 0.12500344 0.058540646 1.4195889e-038
-0.11780833 0.12365559 0.060142227 1.4289528e-038
-0.11573794 0.12298056 0.06097592 1.2722558e-038
-0.1136136 0.12163258 0.062577851 4.4242468e-039
-0.11163269 0.12230314 0.061875328 1.4381724e-038
-0.10944098 0.12028207 0.06424585 1.465399e-038
-0.10746038 0.12095247 0.063543096 1.1061241e-038
-0.10524727 0.11893129 0.065914109 4.3316938e-039
-0.10332923 0.12027445 0.064442605 7.2819652e-039
-0.10116243 0.11892597 0.066045307 3.4101159e-039
-0.099187911 0.11959612 0.065342031 1.2355232e-038
-0.096867137 0.11690163 0.068482697 5.071777e-039
-0.095036432 0.1189175 0.066241413 9.7726751e-039
-0.092843205 0.11756867 0.067844674 8.9429172e-039
-0.090874836 0.1182386 0.06714078 3.7810452e-039
-0.088424787 0.1148708 0.071051873 6.2706803e-039
-0.08678709 0.11823234 0.06727086 5.3534043e-039
-0.084483594 0.1162103 0.069643885 1.0974098e-038
-0.082700133 0.11822586 0.067400612 1.2447788e-038
-0.080196656 0.11485775 0.071313083 5.0714239e-039
-0.078519195 0.11754616 0.068299673 9.4971672e-039
-0.076571204 0.11821568 0.067594573 7.0982816e-039
-0.074328281 0.11686622 0.069198698 1.2445628e-038
-0.072074726 0.11551672 0.070803002 1.2169041e-038
-0.069810554 0.11416712 0.072407641 4.6068416e-039
-0.067969017 0.11550941 0.070932284 1.3642361e-038
-0.065694451 0.11415969 0.072537139 1.355087e-038
-0.063409291 0.11280993 0.074142195 1.419444e-038
-0.06041491 0.10742214 0.080369398 1.3918576e-038
-0.16239834 0.11908364 0.060889039 1.8474817e-039
-0.16026251 0.12380475 0.055609927 1.2537824e-038
-0.15821967 0.12515329 0.054149672 1.3458324e-038
-0.15621251 0.1244783 0.054981284 1.3917133e-038
-0.15418884 0.12515219 0.054284547 1.3917132e-038
-0.15217349 0.12515152 0.054351836 1.4195152e-038
-0.15015844 0.12380178 0.055947758 1.3273561e-038
-0.14813775 0.12380092 0.056014989 1.0969767e-038
-0.14611182 0.12312546 0.056846727 5.9912123e-039
-0.14410459 0.12447348 0.055384468 1.2907684e-038
-0.14206532 0.12312334 0.056980804 4.3327924e-039
-0.14001527 0.12177318 0.058577362 6.1770483e-039
-0.13798678 0.12177191 0.05864431 4.8866613e-039
-0.13595837 0.12177056 0.058711149 1.0603511e-038
-0.13395166 0.12244362 0.058012754 7.0071607e-039
-0.13185319 0.12041861 0.060374878 4.1494648e-039
-0.12979262 0.11974245 0.061206881 1.2632177e-038
-0.12781595 0.12108982 0.059742756 3.5044583e-039
-0.12568796 0.11906452 0.062105592 1.4199144e-038
-0.12375484 0.12108622 0.059875395 4.3324267e-039
-0.12172446 0.12108431 0.059941556 1.3552333e-038
-0.11981603 0.12310587 0.057710432 1.3460135e-038
-0.11770742 0.12175477 0.059307765 1.3736721e-038
-0.11563411 0.1210781 0.060139425 9.3145892e-039
-0.11345804 0.11905228 0.062503196 2.3098864e-039
-0.11142019 0.11904997 0.062569119 1.3549815e-038
-0.1091658 0.11634944 0.065699659 1.456358e-038
-0.10711744 0.11634696 0.065765694 1.3642718e-038
-0.10483081 0.11364622 0.068897061 6.6365818e-039
-0.10314579 0.11769092 0.064364567 1.3092797e-038
-0.10097328 0.11633913 0.065963253 3.9647218e-039
-0.099196516 0.1190346 0.062962443 1.171057e-038
-0.096737131 0.11498447 0.067627862 8.3911784e-039
-0.094830684 0.11633067 0.066159934 5.3465772e-039
-0.092555895 0.11430405 0.068525918 4.4249754e-039
-0.090579361 0.11497557 0.067824505 1.226268e-038
-0.088120684 0.1115996 0.071725093 1.2631819e-038
-0.086643159 0.11631848 0.066420898 3.7799634e-039
-0.084423326 0.11496613 0.068020351 1.2169761e-038
-0.08255057 0.11631198 0.066550829 1.032298e-038
-0.079675354 0.11023733 0.073522232 4.5157432e-039
-0.077984571 0.11293229 0.070517845 1.2445631e-038
-0.075925462 0.11292882 0.070582941 6.0859331e-039
-0.073866569 0.11292531 0.070647985 1.4565407e-038
-0.071704917 0.11224713 0.071480669 5.6224312e-039
-0.069432363 0.11089428 0.07308124 1.2259066e-038
-0.067474388 0.11156521 0.072378412 1.3826026e-038
-0.065188758 0.11021218 0.073979303 1.4010417e-038
-0.062892511 0.10885915 0.075580448 1.4102247e-038
-0.16242507 0.11446811 0.06308604 3.5956015e-039
-0.16026239 0.11987686 0.057060629 1.3733487e-038
-0.15821961 0.12055258 0.05636692 1.4468156e-038
-0.15618227 0.12122819 0.055672899 1.4101524e-038
-0.15415588 0.12122759 0.055740647 1.373274e-038
-0.15212677 0.12190304 0.055046141 1.3734174e-038
-0.15010327 0.12055002 0.056638073 1.4010403e-038
-0.14807697 0.1212253 0.055943251 1.3457595e-038
-0.1460346 0.11919597 0.058297828 3.9665238e-039
-0.14402463 0.12122336 0.056077756 1.1617671e-038
-0.1419661 0.11919387 0.058432665 4.3331554e-039
-0.13989139 0.11716422 0.060788039 1.1894261e-038
-0.13786544 0.11783907 0.060092654 1.1433275e-038
-0.13580705 0.1171616 0.060922753 7.5614177e-039
-0.13380839 0.11851244 0.059464004 1.3277547e-038
-0.1316743 0.11580634 0.062583104 4.2423765e-039
-0.12965417 0.11648089 0.061887112 1.2539983e-038
-0.1276992 0.11850767 0.059664365 3.4129829e-039
-0.12556541 0.11647745 0.062020902 1.3922562e-038
-0.12359172 0.11782792 0.060560808 3.8732338e-039
-0.12155307 0.117826 0.060627241 1.3368305e-038
-0.11967729 0.12052869 0.057639197 1.3460137e-038
-0.11751956 0.1184981 0.059996154 1.3367942e-038
-0.11548404 0.11849597 0.060062192 1.2814045e-038
-0.11325335 0.11578909 0.063183531 4.7933908e-039
-0.11131032 0.11713912 0.061721839 1.4008988e-038
-0.10894427 0.11307967 0.066371962 1.4929148e-038
-0.10694462 0.11375338 0.065674178 1.0600984e-038
-0.10465213 0.11104608 0.068797164 7.9312764e-039
-0.10296203 0.11510061 0.06427779 1.2446703e-038
-0.10071872 0.11306939 0.066636696 6.1766798e-039
-0.098866217 0.1150952 0.064409241 1.3553039e-038
-0.09653645 0.11238758 0.067533083 1.327753e-038
-0.094551377 0.11306092 0.066834226 1.097121e-038
-0.092344075 0.11170553 0.068429373 5.6231515e-039
-0.090204768 0.1110263 0.069259927 1.2169041e-038
-0.08797887 0.10967079 0.070855446 1.3275743e-038
-0.086162746 0.11169626 0.068626314 3.9629169e-039
-0.084015898 0.11101683 0.06945686 1.4379926e-038
-0.082132354 0.11236601 0.067992032 6.0826877e-039
-0.079706565 0.10965776 0.071118198 4.4246083e-039
-0.077923797 0.11168304 0.068887681 1.1336401e-038
-0.075669311 0.11032712 0.070483655 5.7146269e-039
-0.073604912 0.11032362 0.070548877 6.8209744e-039
-0.071334623 0.10896751 0.072145231 7.3741468e-039
-0.069159463 0.10828763 0.072976135 1.3365777e-038
-0.06687066 0.10693143 0.074572891 1.3458674e-038
-0.064793602 0.10692767 0.074638225 1.373454e-038
-0.062488977 0.1055713 0.076235384 1.3826735e-038
-0.16240226 0.11186929 0.062982619 3.5026856e-039
-0.16023459 0.11729115 0.056974605 1.3457609e-038
-0.1581863 0.11796854 0.056283168 1.3641989e-038
-0.15615158 0.11796804 0.056351319 1.4101891e-038
-0.15411688 0.11796744 0.056419358 1.4009329e-038
-0.15208225 0.11796677 0.056487288 1.419372e-038
-0.15004766 0.11796601 0.056555107 1.2720753e-038
-0.14801313 0.11796516 0.056622811 1.3274287e-038
-0.14596225 0.11593086 0.058971282 5.5338481e-039
-0.14393605 0.1172854 0.057518285 6.6391097e-039
-0.14189899 0.11728431 0.057585761 1.1709869e-038
-0.13983478 0.11592756 0.059174199 1.2817279e-038
-0.13780877 0.11660409 0.058480985 9.8659483e-039
-0.1357121 0.11456938 0.060830381 8.5752095e-039
-0.13372979 0.1166013 0.058615305 1.3738165e-038
-0.13159256 0.11388861 0.061725982 3.8735925e-039
-0.12956963 0.11456485 0.061032195 1.2724373e-038
-0.12755226 0.11524096 0.060338154 4.0576321e-039
-0.1255078 0.1152392 0.060404997 1.3738526e-038
-0.1234988 0.11591516 0.05971048 4.0565601e-039
-0.12141927 0.11523548 0.060538407 1.1893175e-038
-0.11941595 0.1159113 0.05984351 1.2814768e-038
-0.11728778 0.11455362 0.061432883 1.3736001e-038
-0.11524127 0.11455147 0.061499305 5.6220655e-039
-0.113146 0.1138714 0.062327363 1.3179951e-038
-0.11120031 0.11522478 0.060870022 1.4745832e-038
-0.10899396 0.11318894 0.063221745 1.4101182e-038
-0.10694263 0.11318648 0.063287914 7.9273094e-039
-0.1047122 0.11115044 0.065640211 1.0420557e-038
-0.10284045 0.11318137 0.06341999 9.404959e-039
-0.10072446 0.11250088 0.064248092 8.6663163e-039
-0.098738983 0.113176 0.063551657 9.4028052e-039
-0.096476696 0.11113966 0.065904617 6.1770371e-039
-0.094418272 0.11113676 0.065970466 4.7008295e-039
-0.092284009 0.11045599 0.066798829 1.3643806e-038
-0.090223268 0.11045296 0.066864565 1.0786461e-038
-0.087999821 0.10909419 0.068455733 8.3886533e-039
-0.086018205 0.1097689 0.067758664 1.2722557e-038
-0.083868474 0.10908784 0.068587162 1.3275732e-038
-0.08171352 0.10840671 0.069415756 1.2537458e-038
-0.079461075 0.1070476 0.07100758 1.3091705e-038
-0.077578016 0.10839999 0.069546841 1.410155e-038
-0.075315163 0.10704073 0.071138829 1.2906606e-038
-0.073242538 0.10703722 0.071204334 1.3275389e-038
-0.070963874 0.10567787 0.072796635 1.3735645e-038
-0.06878043 0.10499635 0.073625669 1.2536736e-038
-0.066483229 0.10363684 0.075218476 1.4100094e-038
-0.064286724 0.10295518 0.076047778 1.4194087e-038
-0.061971039 0.10159552 0.077641025 1.4194795e-038
-0.16236292 0.10994306 0.062112961 3.3179202e-039
-0.16020648 0.11469871 0.056879673 1.3273948e-038
-0.15816346 0.11469828 0.056948211 1.3458307e-038
-0.15612045 0.11469778 0.057016656 1.4010406e-038
-0.15407215 0.11537661 0.056327205 1.4009329e-038
-0.15202932 0.11605535 0.055637456 1.3733465e-038
-0.14999166 0.11469575 0.057221275 1.3273573e-038
-0.14794603 0.11401548 0.058047298 1.2904796e-038
-0.14588393 0.11197625 0.060389705 1.2075039e-038
-0.14384687 0.11333412 0.058941342 4.0554741e-039
-0.14180978 0.11401245 0.058250856 1.2446351e-038
-0.13973713 0.11265239 0.059835363 1.207936e-038
-0.13770291 0.1133306 0.059144519 6.8238471e-039
-0.13559774 0.11129092 0.061487801 1.0973002e-038
-0.13358554 0.11264834 0.060038112 1.1802763e-038
-0.1314861 0.11128798 0.061623022 4.5189535e-039
-0.1294577 0.11196582 0.060931604 1.1987518e-038
-0.1274648 0.11332306 0.059480928 5.0724916e-039
-0.12541752 0.11332132 0.059547883 8.0231021e-039
-0.12337035 0.1133195 0.059614748 5.3494261e-039
-0.12124705 0.11195868 0.061199956 1.2631814e-038
-0.11915386 0.11127724 0.062026061 8.4830139e-039
-0.11705539 0.11059573 0.062852241 8.2982569e-039
-0.11504418 0.11127304 0.062159568 1.1985359e-038
-0.11298953 0.11127083 0.062226158 1.3369003e-038
-0.11093505 0.11126855 0.062292658 1.3184608e-038
-0.10877191 0.10990722 0.063878566 1.3277175e-038
-0.10671231 0.10990478 0.063945033 1.2078998e-038
-0.10453323 0.10854333 0.065531202 1.3092793e-038
-0.10253109 0.10922021 0.064837657 1.364345e-038
-0.10040405 0.10853808 0.065663993 1.2816208e-038
-0.098271742 0.10785586 0.066490412 1.3369382e-038
-0.096134201 0.10717359 0.067316912 1.235559e-038
-0.094138227 0.10785019 0.066622801 1.3185351e-038
-0.092147864 0.10852676 0.065928422 1.2632884e-038
-0.090084307 0.10852376 0.065994292 1.1157402e-038
-0.08785788 0.1071617 0.067581281 1.0788266e-038
-0.085789286 0.10715857 0.067647167 1.0325849e-038
-0.083633944 0.10647583 0.068473764 9.4053317e-039
-0.08156307 0.10647258 0.068539545 9.0369135e-039
-0.079400033 0.10578974 0.069366179 7.7486943e-039
-0.077326871 0.10578635 0.069431864 7.1976799e-039
-0.075058341 0.10442387 0.071019724 7.0125698e-039
-0.072879702 0.10374084 0.071846642 7.0122054e-039
-0.070489436 0.10169863 0.074196264 5.3494429e-039
-0.068189085 0.10033588 0.075784959 1.2078278e-038
-0.065878093 0.098973118 0.07737387 1.3089544e-038
-0.06377922 0.098969355 0.077439941 1.3549439e-038
-0.061224371 0.096247308 0.080552533 1.3457244e-038
-0.16233957 0.1073323 0.061993953 4.0551195e-039
-0.16017807 0.11209947 0.056775887 1.2720773e-038
-0.15812947 0.11209905 0.056844641 1.3458307e-038
-0.15608089 0.11209854 0.056913257 1.3733817e-038
-0.1540271 0.11277901 0.056226116 1.3917853e-038
-0.15198132 0.11277834 0.056294437 1.4101891e-038
-0.14993541 0.11209652 0.057118438 1.4285564e-038
-0.14788412 0.11141458 0.057942562 1.4377759e-038
-0.14582184 0.11005152 0.0595227 1.3548009e-038
-0.14376542 0.11005051 0.059590921 5.8993867e-039
-0.1417201 0.11073049 0.058902875 1.0880102e-038
-0.13963902 0.10936718 0.060483299 1.2263751e-038
-0.13759661 0.11004698 0.059794936 1.1526186e-038
-0.13550213 0.10868345 0.061375644 1.1526536e-038
-0.13346259 0.10936314 0.060686916 1.3553028e-038
-0.13137937 0.10868053 0.061511248 1.3278603e-038
-0.12931812 0.10867894 0.061578885 1.3554844e-038
-0.12728706 0.1093584 0.060889564 1.3184622e-038
-0.12526153 0.11003774 0.060200028 1.382926e-038
-0.12317061 0.10935484 0.061024133 1.3463355e-038
-0.12103619 0.10799071 0.062605411 1.2722572e-038
-0.11893193 0.10730764 0.063429751 1.2537457e-038
-0.11690965 0.10798667 0.062739708 1.2079353e-038
-0.11480027 0.10730345 0.063564017 1.1065558e-038
-0.11273465 0.10730124 0.063630998 1.0236155e-038
-0.1106692 0.10729896 0.063697867 1.0052116e-038
-0.10860388 0.10729661 0.063764624 8.3915147e-039
-0.10653877 0.10729416 0.063831285 8.6670394e-039
-0.10447379 0.10729167 0.063897863 7.9302002e-039
-0.102409 0.1072891 0.063964322 7.654335e-039
-0.10034438 0.10728645 0.064030685 8.3000716e-039
-0.098143838 0.10592149 0.065613009 9.3138564e-039
-0.096003391 0.10523753 0.066437528 8.3922686e-039
-0.093931191 0.10523467 0.06650386 5.0742979e-039
-0.091935381 0.10591291 0.065811783 7.0129257e-039
-0.089945197 0.10659107 0.06511949 8.9468829e-039
-0.087797411 0.10590689 0.065943852 9.0394359e-039
-0.085560068 0.10454144 0.067526884 1.0974835e-038
-0.083312102 0.10317595 0.069110118 1.0882282e-038
-0.081053495 0.10181034 0.070693642 1.346376e-038
-0.078876726 0.10112587 0.071518607 1.1436888e-038
-0.076694757 0.10044131 0.07234364 1.217445e-038
-0.074605472 0.10043786 0.072409809 1.0515286e-038
-0.072415821 0.099753194 0.073234953 1.0051435e-038
-0.070014387 0.097706065 0.075578511 5.9937333e-039
-0.067596935 0.095658839 0.077922501 1.1063757e-038
-0.065380901 0.094973959 0.078748256 1.3365771e-038
-0.06327109 0.094970219 0.07881473 1.3549439e-038
-0.16233198 0.10403201 0.062619247 3.8725317e-039
-0.16016272 0.1088107 0.057416495 1.3458674e-038
-0.15810581 0.10881028 0.057485521 1.3825658e-038
-0.15604894 0.10880978 0.057554409 1.3825658e-038
-0.15398693 0.10949189 0.056869727 1.3641266e-038
-0.15193041 0.11017394 0.05618475 1.391822e-038
-0.14987859 0.10880776 0.05776047 1.3918222e-038
-0.14782189 0.10880692 0.057828926 1.2537457e-038
-0.1457596 0.10812329 0.058651105 9.8695483e-039
-0.14370874 0.108805 0.057965524 8.9457969e-039
-0.14163001 0.10743845 0.059541721 7.6557784e-039
-0.13955432 0.10675456 0.060364049 8.2096724e-039
-0.13748986 0.1067533 0.060432237 7.8408899e-039
-0.13542548 0.10675196 0.060500298 7.2877133e-039
-0.13338317 0.10743327 0.059813879 6.7345535e-039
-0.13129701 0.10674904 0.060636103 5.4434602e-039
-0.12923293 0.10674748 0.060703851 5.5392333e-039
-0.12719908 0.10742855 0.060016848 6.828533e-039
-0.12513797 0.10742682 0.060084309 6.1824447e-039
-0.12307696 0.107425 0.060151629 5.9969885e-039
-0.12090126 0.1053749 0.06248359 5.075035e-039
-0.11879138 0.10469019 0.063305974 6.738522e-039
-0.11671992 0.10468815 0.063373365 7.659758e-039
-0.1146486 0.10468602 0.063440636 7.0129257e-039
-0.11257745 0.10468382 0.063507795 6.7363388e-039
-0.11055829 0.1053643 0.062819526 6.9207301e-039
-0.10843559 0.1046792 0.063641839 7.8416214e-039
-0.10630763 0.10399398 0.064464293 7.1998435e-039
-0.10417442 0.10330872 0.065286733 9.133072e-039
-0.10216135 0.10398892 0.064597882 7.1980442e-039
-0.10002306 0.10330351 0.06542033 1.0054671e-038
-0.097811416 0.10193525 0.06699872 9.9621124e-039
-0.095659919 0.10124971 0.067821443 8.1207222e-039
-0.093576767 0.10124685 0.067888148 5.2605011e-039
-0.091570079 0.10192671 0.067198642 1.0884434e-038
-0.089569017 0.10260651 0.066508852 8.3951525e-039
-0.087410197 0.10192069 0.067331456 6.6420062e-039
-0.085161746 0.10055195 0.068910554 7.1036934e-039
-0.082815565 0.098500364 0.071246348 7.5646715e-039
-0.080722809 0.098497115 0.071312875 6.6434355e-039
-0.078537732 0.097810954 0.07213603 7.3802803e-039
-0.076252215 0.096441962 0.073715933 7.7483425e-039
-0.074054025 0.095755704 0.074539296 9.0383583e-039
-0.071749993 0.094386533 0.076119706 9.4056961e-039
-0.069435365 0.09301731 0.077700339 9.9585055e-039
-0.067322284 0.093013689 0.077767059 1.2076478e-038
-0.065100655 0.09232717 0.078590877 1.3181383e-038
-0.062985361 0.092323437 0.07865753 1.3272498e-038
-0.162292 0.10209037 0.061729405 4.6104485e-039
-0.16012035 0.10688059 0.056541774 1.3181025e-038
-0.15807116 0.10619579 0.057362102 1.39175e-038
-0.15600872 0.10619529 0.057431187 1.419372e-038
-0.15394121 0.10687909 0.056748796 1.3825658e-038
-0.15188156 0.10687841 0.05681758 1.3549438e-038
-0.14982164 0.10619327 0.057637807 1.3365768e-038
-0.14775939 0.10619244 0.057706472 6.1770455e-039
-0.14569145 0.10550717 0.05852671 6.3675633e-039
-0.14363508 0.10619052 0.057843439 7.1047654e-039
-0.14156184 0.10550508 0.058663651 7.1955205e-039
-0.13948324 0.10481955 0.059483901 7.2870099e-039
-0.13739929 0.10413395 0.060304251 9.5929726e-039
-0.13532934 0.10413262 0.060372517 7.3806348e-039
-0.13328154 0.10481557 0.059688456 8.1182111e-039
-0.13118973 0.10412972 0.060508728 7.7494299e-039
-0.1290926 0.10344377 0.061329074 8.3033086e-039
-0.12705058 0.10412649 0.060644504 7.7508509e-039
-0.12498117 0.10412477 0.060712237 6.2746586e-039
-0.12294754 0.10480734 0.060027182 6.27466e-039
-0.1208044 0.10343671 0.061600149 7.3810076e-039
-0.11873267 0.10343474 0.061667643 8.4869908e-039
-0.11666109 0.1034327 0.061735038 7.8419759e-039
-0.11454315 0.10274617 0.062555425 7.1969638e-039
-0.11246915 0.10274397 0.062622704 6.1828119e-039
-0.1103953 0.1027417 0.062689878 5.5378026e-039
-0.10832163 0.10273938 0.062756948 6.5519559e-039
-0.10619076 0.10205257 0.063577309 5.9991465e-039
-0.1041147 0.10205008 0.06364429 7.1966093e-039
-0.10197604 0.10136311 0.064464688 7.1966093e-039
-0.099832147 0.10067608 0.065285206 7.3802803e-039
-0.09754657 0.098620109 0.067613296 7.74906e-039
-0.095386766 0.097932905 0.068434127 8.1171222e-039
-0.093295358 0.097930059 0.068501145 7.4724759e-039
-0.091204159 0.097927146 0.068568058 7.5650345e-039
-0.089034103 0.097239725 0.069388956 8.0242176e-039
-0.086858831 0.096552208 0.07020998 8.3930029e-039
-0.084509373 0.094495803 0.072539575 7.9323765e-039
-0.082056679 0.091754802 0.075623944 8.9425487e-039
-0.079762317 0.090382598 0.077200077 8.2075088e-039
-0.077457346 0.089010365 0.078776427 7.7476195e-039
-0.075141758 0.087638035 0.080353022 8.0238504e-039
-0.073011637 0.087634578 0.080420539 7.7476195e-039
-0.071083248 0.088999979 0.078978434 8.2064326e-039
-0.069062464 0.08968088 0.078290753 7.1000808e-039
-0.066941172 0.089677259 0.078357764 1.373528e-038
-0.064929008 0.090358056 0.077669673 1.3365774e-038
-0.062699318 0.089669868 0.078491576 1.364056e-038
-0.16226774 0.099459246 0.06158381 6.2710474e-039
-0.16010424 0.10357495 0.05716037 1.2996994e-038
-0.15804668 0.10288852 0.057978768 1.3089544e-038
-0.1559682 0.10357403 0.057299055 1.382566e-038
-0.1538952 0.10425945 0.056619052 1.3641624e-038
-0.15182997 0.10425879 0.056688029 1.4101157e-038
-0.14976361 0.10220003 0.059004985 1.354978e-038
-0.14769349 0.10288521 0.058324568 5.7160674e-039
-0.14562298 0.10288429 0.058393382 6.6401817e-039
-0.14356114 0.10356931 0.057712484 7.4728304e-039
-0.14148225 0.10288221 0.058530711 6.1828119e-039
-0.139384 0.101509 0.060098894 5.9977004e-039
-0.13729173 0.10082175 0.060917377 7.011132e-039
-0.13523291 0.10150644 0.06023594 7.8405382e-039
-0.13315749 0.10150504 0.060304288 7.5632282e-039
-0.13108218 0.10150357 0.06037255 7.5632282e-039
-0.12897941 0.10081597 0.06119094 8.2096752e-039
-0.12696218 0.10218641 0.059758317 7.3799117e-039
-0.12488993 0.1021847 0.059826162 7.380632e-039
-0.12281782 0.10218289 0.05989388 7.7494145e-039
-0.12066896 0.10080893 0.06146279 7.6572217e-039
-0.11859168 0.10080698 0.061530501 8.1164006e-039
-0.11651455 0.10080495 0.061598107 8.3007918e-039
-0.11439098 0.10011683 0.062416498 8.7614057e-039
-0.11221285 0.09874256 0.063985899 8.9457969e-039
-0.11007602 0.09805423 0.064804576 8.6688541e-039
-0.10793394 0.097365856 0.065623261 8.3929875e-039
-0.10578658 0.096677393 0.06644202 8.0242064e-039
-0.10363398 0.095988862 0.067260869 8.9443634e-039
-0.10141327 0.094614148 0.068831228 7.9302115e-039
-0.099181898 0.093239404 0.070401803 7.7451027e-039
-0.09687157 0.091178469 0.072724253 7.9294912e-039
-0.094687149 0.090489618 0.073543772 7.7454573e-039
-0.092350088 0.088428527 0.075866908 7.9298485e-039
-0.090073377 0.087053441 0.077438585 8.2989968e-039
-0.087627746 0.084306084 0.080514416 8.2060809e-039
-0.08524248 0.082244724 0.082838833 8.3904721e-039
-0.082756601 0.079497181 0.085915796 8.3901148e-039
-0.080423802 0.078121766 0.087488919 9.0354814e-039
-0.078080401 0.076746255 0.089062318 8.3904721e-039
-0.075540975 0.073998451 0.092140719 7.5603541e-039
-0.072980113 0.07125055 0.095219731 7.0071832e-039
-0.071182735 0.073991455 0.09227898 4.8874039e-039
-0.07011307 0.081535161 0.084069088 4.427502e-039
-0.068689123 0.086334437 0.078868017 8.6674136e-039
-0.066772103 0.087703064 0.077429749 1.354873e-038
-0.064648271 0.087699413 0.077496804 1.4651838e-038
-0.062189683 0.085637294 0.079822719 1.3916791e-038
-0.16225903 0.096133642 0.062176052 6.3621655e-039
-0.16008769 0.10025921 0.057765804 1.3089896e-038
-0.15802175 0.099571154 0.058582328 1.3274282e-038
-0.15593506 0.10025831 0.057905044 1.382566e-038
-0.1538588 0.10025772 0.05797451 1.3641624e-038
-0.15178259 0.10025707 0.05804386 1.4009682e-038
-0.14970593 0.09956868 0.058860321 1.354978e-038
-0.14762072 0.098192543 0.060424142 1.2350895e-038
-0.14553653 0.098191626 0.060493432 9.5900761e-039
-0.14345241 0.098190635 0.060562626 8.9450724e-039
-0.14135699 0.097501904 0.061379269 8.9465144e-039
-0.13925625 0.096813053 0.062196046 8.7614028e-039
-0.13715015 0.09612415 0.063012831 8.6681338e-039
-0.13503872 0.095435187 0.06382972 9.0369163e-039
-0.13294415 0.095433772 0.063898705 9.0358359e-039
-0.13079983 0.094056927 0.065463707 9.4049786e-039
-0.12870008 0.094055347 0.065532647 8.9447207e-039
-0.1266004 0.094053708 0.065601528 9.1283889e-039
-0.12453394 0.094739683 0.06492193 9.222381e-039
-0.12232989 0.092674829 0.067235664 8.9461472e-039
-0.12022518 0.092672959 0.067304395 8.6692072e-039
-0.11799695 0.090607911 0.069618702 8.8535985e-039
-0.11584046 0.089918204 0.070436135 8.7596064e-039
-0.11358538 0.087852992 0.072751135 9.4971742e-039
-0.11131416 0.085787736 0.075066529 9.955993e-039
-0.10913099 0.08509776 0.075884521 9.4046185e-039
-0.10694255 0.084407657 0.07670261 9.6815655e-039
-0.10474887 0.08371754 0.077520765 9.8659567e-039
-0.10248971 0.082339622 0.079088144 9.4046213e-039
-0.10009398 0.079586178 0.082154341 1.0234022e-038
-0.097808085 0.078208059 0.083722465 9.5886524e-039
-0.09544313 0.076142177 0.086040199 8.4823076e-039
-0.093133189 0.074763872 0.087608889 8.3901092e-039
-0.090738796 0.072697826 0.089927398 7.1908443e-039
-0.088328354 0.070631646 0.092246383 6.0855786e-039
-0.073435903 0.057545006 0.10691935 4.2409569e-039
-0.071101442 0.056853727 0.10774074 4.8863263e-039
-0.069545127 0.07679157 0.086118869 6.0848835e-039
-0.068211704 0.082290135 0.080182761 7.1955317e-039
-0.066283926 0.08366207 0.078749165 1.2261957e-038
-0.064149164 0.08365842 0.078816593 1.419086e-038
-0.061455943 0.080215819 0.082638077 1.4100462e-038
-0.16224989 0.092797935 0.062755145 5.6224579e-039
-0.16005765 0.097622722 0.057613388 1.2721838e-038
-0.15799639 0.096243724 0.059172656 1.3089181e-038
-0.15590146 0.096932516 0.058497805 1.4010772e-038
-0.15381691 0.096931949 0.058567557 1.3825658e-038
-0.15173459 0.096241996 0.05938217 1.3457598e-038
-0.14964686 0.095551908 0.060196895 1.3274283e-038
-0.14753744 0.091415279 0.064737484 9.4035156e-039
-0.09616822 0.060353268 0.099945702 7.1890367e-039
-0.093737811 0.058282401 0.10225914 7.6511036e-039
-0.091433629 0.057590108 0.1030783 7.7432993e-039
-0.089124247 0.056897771 0.10389748 5.8997412e-039
-0.08680965 0.056205355 0.10471673 5.6238746e-039
-0.084331267 0.054134089 0.10703137 7.2833931e-039
-0.081918851 0.05275216 0.10859868 7.5592597e-039
-0.079665259 0.052748881 0.10867061 5.7153471e-039
-0.077411897 0.052745543 0.10874246 4.7937594e-039
-0.075158775 0.052742146 0.10881422 4.9788737e-039
-0.07244163 0.0492917 0.11262626 4.6097338e-039
-0.070653275 0.05273515 0.10895745 6.3625354e-039
-0.069582321 0.076167785 0.083656959 6.5444338e-039
-0.068044782 0.080300733 0.079234794 8.020605e-039
-0.065901555 0.080297157 0.079302609 1.3088118e-038
-0.063649461 0.079604074 0.080118962 1.37324e-038
-0.16222459 0.090143129 0.062578633 6.0823584e-039
-0.16004026 0.094288453 0.05819463 1.3735268e-038
-0.15796033 0.093597114 0.059007332 1.3641635e-038
-0.15587498 0.092905685 0.059820112 1.4009697e-038
-0.15377942 0.092905112 0.059890237 1.382566e-038
-0.151686 0.092213511 0.060703073 1.3365047e-038
-0.1495872 0.091521785 0.061516017 1.3459399e-038
-0.113119 0.046585426 0.11100608 7.3756027e-039
-0.11070301 0.04451026 0.11331341 7.9287765e-039
-0.10861754 0.047271881 0.11040945 8.1117399e-039
-0.10671069 0.052106366 0.10527081 7.7418699e-039
-0.10462222 0.054176889 0.10310967 7.4652816e-039
-0.10237723 0.054174364 0.10318229 7.4641928e-039
-0.10001165 0.052789751 0.10474461 7.3723545e-039
-0.097446144 0.049332064 0.10854206 7.7411343e-039
-0.09491951 0.046565279 0.11159524 7.7414902e-039
-0.092645459 0.046562426 0.11166842 8.5716152e-039
-0.090514101 0.047941536 0.11025099 7.1901241e-039
-0.088393815 0.049320545 0.10883315 6.2685237e-039
-0.086361267 0.051390566 0.10666945 7.4677844e-039
-0.084107108 0.051387452 0.1067416 7.55998e-039
-0.081935249 0.052075289 0.1060681 8.2978883e-039
-0.07976906 0.052763056 0.10539433 7.9283996e-039
-0.077521026 0.052759763 0.10546605 7.4677872e-039
-0.075183004 0.052065372 0.10628351 7.3763146e-039
-0.072375134 0.047915697 0.11083068 8.2060809e-039
-0.070874013 0.053440519 0.10493465 7.5610786e-039
-0.070498444 0.066566937 0.090829931 6.3629026e-039
-0.06972079 0.076238178 0.080452859 7.005765e-039
-0.067877702 0.078307822 0.078282341 1.0417327e-038
-0.065625213 0.077613205 0.079096623 1.3365768e-038
-0.063258365 0.076227471 0.080657423 1.3365051e-038
-0.16219901 0.087481499 0.062393241 6.820987e-039
-0.16000955 0.091636725 0.058022324 1.29977e-038
-0.15792395 0.090943731 0.05883307 1.3549439e-038
-0.15584043 0.089558035 0.060384441 1.3640913e-038
-0.15373184 0.090250045 0.059714258 1.3456878e-038
-0.1516328 0.089556813 0.060525145 1.3733829e-038
-0.14952764 0.088170901 0.062076874 1.3458318e-038
-0.10795764 0.03758201 0.1175195 8.2968514e-039
-0.10617556 0.044505939 0.11016957 7.2819792e-039
-0.10422786 0.048659272 0.10578803 7.2816121e-039
-0.10196644 0.048656762 0.10586122 8.0170121e-039
-0.099584326 0.04726889 0.10741974 7.925171e-039
-0.097191535 0.04588094 0.10897854 8.1099168e-039
-0.09491989 0.045878183 0.10905176 7.9266017e-039
-0.092717037 0.046567991 0.10838189 7.0975613e-039
-0.09059114 0.047950398 0.10696867 7.8358494e-039
-0.088550352 0.050025441 0.1048118 8.3890232e-039
-0.086449325 0.051407728 0.10339759 8.5741347e-039
-0.084279925 0.052097306 0.10272629 7.837999e-039
-0.082034029 0.052094162 0.10279813 8.8517852e-039
-0.079873234 0.052783661 0.10212634 8.8514279e-039
-0.077455334 0.051395018 0.10368516 8.7596022e-039
-0.075117134 0.05069901 0.10450051 9.2205761e-039
-0.072401702 0.047232173 0.10829107 8.9436375e-039
-0.07109528 0.054155584 0.1009244 6.8224346e-039
-0.070729256 0.067313299 0.086860336 4.1494984e-039
-0.069758467 0.075622231 0.078001164 7.6554491e-039
-0.067710549 0.076311454 0.077325284 1.1616575e-038
-0.06534861 0.074922532 0.078881755 1.3182815e-038
-0.062757544 0.07214807 0.081927091 1.3642355e-038
-0.16220421 0.083424583 0.06367518 7.8354795e-039
-0.16000417 0.087589696 0.05931754 1.2813312e-038
-0.15789741 0.087589286 0.059388254 1.3641634e-038
-0.15579806 0.086894572 0.060197212 1.382566e-038
-0.15368864 0.086893998 0.060267806 1.3457595e-038
-0.15158121 0.086199105 0.06107682 1.3550514e-038
-0.14946687 0.084115632 0.063363194 1.3550503e-038
-0.10574387 0.038264219 0.11354867 7.0986725e-039
-0.10383261 0.043121718 0.10844027 7.4670921e-039
-0.10167043 0.044507805 0.10703298 7.5596395e-039
-0.09939824 0.04450522 0.10710645 8.2042774e-039
-0.097126253 0.044502575 0.10717984 7.7436538e-039
-0.095052376 0.046582695 0.10503082 7.5585395e-039
-0.09278895 0.046579909 0.10510373 9.1272973e-039
-0.090668529 0.047965676 0.10369462 8.2975478e-039
-0.088559188 0.049351349 0.10228512 8.0198861e-039
-0.086537749 0.051431306 0.10013402 8.2057207e-039
-0.084294207 0.051428258 0.10020591 8.4815986e-039
-0.082050905 0.051425159 0.10027773 8.9422208e-039
-0.079807833 0.051421978 0.10034943 8.7585456e-039
-0.07738968 0.050030071 0.101904 8.7596092e-039
-0.075051293 0.049332432 0.10271724 7.0997305e-039
-0.072614647 0.047940411 0.10427219 6.9153421e-039
-0.071412869 0.05557467 0.096185081 5.6249704e-039
-0.070763551 0.06668067 0.084386975 5.1639922e-039
