# .PCD v0.7 - Point Cloud Data file format
VERSION 0.7
FIELDS x y z rgb
SIZE 4 4 4 4
TYPE F F F F
COUNT 1 1 1 1
WIDTH 910
HEIGHT 1
VIEWPOINT 0 0 0 1 0 0 0
POINTS 910
DATA ascii
-0.022218937 0.09526626 -0.070811592 1.7977779e-038
-0.019986048 0.093721226 -0.069463454 1.3374852e-038
-0.017934151 0.092948124 -0.068758413 7.4801116e-039
-0.015294569 0.089859106 -0.066122532 2.6067332e-039
-0.012633693 0.086770006 -0.063485906 2.3337715e-039
-0.10006884 0.091071546 -0.072342366 1.3550888e-038
-0.098490998 0.094165348 -0.074829474 1.6129095e-038
-0.096701741 0.094938338 -0.075404659 1.6036206e-038
-0.094918132 0.095711313 -0.075980052 1.5480538e-038
-0.093056992 0.095710687 -0.075917929 1.8059504e-038
-0.091282025 0.096483685 -0.076493673 1.7503447e-038
-0.08924675 0.094935812 -0.075155832 1.7506685e-038
-0.087566368 0.096482374 -0.076369733 1.741522e-038
-0.085614815 0.095708057 -0.075669669 1.7784722e-038
-0.083851717 0.096481003 -0.076245897 1.7694333e-038
-0.081994787 0.096480303 -0.076184005 1.8893955e-038
-0.08013811 0.096479587 -0.076122142 1.8802843e-038
-0.078386657 0.097252458 -0.076698773 1.8434781e-038
-0.076425567 0.096478119 -0.075998515 1.8436221e-038
-0.074569717 0.096477367 -0.075936727 1.769795e-038
-0.072714128 0.0964766 -0.075874969 1.1421433e-038
-0.070858836 0.096475825 -0.075813241 1.7598172e-038
-0.06900382 0.096475042 -0.075751528 2.0457319e-038
-0.067149088 0.096474245 -0.075689852 1.3069074e-038
-0.065418579 0.097247042 -0.076267265 1.2063238e-038
-0.063440502 0.096472614 -0.075566553 5.2627698e-039
-0.061586645 0.096471786 -0.075504936 7.8442474e-039
-0.05960102 0.095697299 -0.074803956 1.5860518e-038
-0.058014613 0.097243711 -0.076021224 1.6036971e-038
-0.056164358 0.097242862 -0.075959764 1.7236555e-038
-0.054314416 0.09724199 -0.075898334 1.6774882e-038
-0.052321851 0.096467502 -0.075197205 1.6590499e-038
-0.050615411 0.097240239 -0.075775519 1.5739878e-038
-0.048766375 0.097239345 -0.075714149 1.8130119e-038
-0.046766605 0.096464828 -0.075012825 1.2606281e-038
-0.04476174 0.095690258 -0.074311294 1.7780412e-038
-0.042751759 0.094915725 -0.073609643 1.048257e-038
-0.041054979 0.095688418 -0.074188337 1.8975711e-038
-0.039525747 0.097234778 -0.075407602 1.9448883e-038
-0.037513994 0.096460223 -0.074705914 1.7696802e-038
-0.035497133 0.095685609 -0.074004039 1.8987541e-038
-0.033475179 0.094911039 -0.073302038 1.7882634e-038
-0.031793442 0.095683709 -0.073881276 1.7331276e-038
-0.029942052 0.095682748 -0.073819906 1.4845268e-038
-0.028090956 0.095681787 -0.073758565 1.5030403e-038
-0.026240174 0.095680818 -0.073697239 1.6043494e-038
-0.024389705 0.095679842 -0.073635921 1.6780695e-038
-0.022353347 0.094905242 -0.07293348 1.7241672e-038
-0.020500746 0.094904259 -0.07287211 1.6232194e-038
-0.018456895 0.094129637 -0.072169423 1.1626e-038
-0.016796455 0.094902284 -0.072749406 1.1169736e-038
-0.014944766 0.094901294 -0.07268808 6.8423498e-039
-0.013293037 0.095673941 -0.073268354 8.6047012e-040
-0.011242231 0.094899312 -0.072565444 1.230696e-039
-0.0089812307 0.093351021 -0.071220614 4.0237725e-040
-0.0065019643 0.091029041 -0.069233522 4.9565048e-040
-0.0040068054 0.088707089 -0.067245938 8.6263373e-040
-0.10133813 0.083725981 -0.068817288 6.4500661e-039
-0.1003796 0.093803726 -0.077011473 1.5295735e-038
-0.098590173 0.09457843 -0.077584408 1.5941826e-038
-0.096728526 0.094577879 -0.077522166 1.0784705e-038
-0.094867118 0.09457732 -0.077459939 1.0047515e-038
-0.09317255 0.096127287 -0.078668922 1.8709197e-038
-0.091403075 0.096901946 -0.079242587 1.7415926e-038
-0.089550532 0.09690135 -0.079180717 1.898362e-038
-0.087606795 0.096125491 -0.07848303 1.9076536e-038
-0.085752025 0.096124873 -0.078421116 1.695748e-038
-0.083994418 0.096899487 -0.078995243 1.8339691e-038
-0.082142897 0.096898839 -0.07893347 1.8803186e-038
-0.08039394 0.097673431 -0.079507925 1.9261648e-038
-0.078545667 0.097672768 -0.079446293 1.83415e-038
-0.076697655 0.09767209 -0.07938467 1.631681e-038
-0.074739471 0.096896149 -0.07868661 1.8341865e-038
-0.072776131 0.096120194 -0.077988386 1.8061661e-038
-0.071039401 0.096894741 -0.078563318 1.8153129e-038
-0.069071211 0.096118756 -0.07786496 1.7411251e-038
-0.06721919 0.096118025 -0.077803291 1.4182259e-038
-0.065367438 0.09611728 -0.07774163 1.4002204e-038
-0.06376943 0.097667046 -0.078954034 1.658724e-038
-0.061923694 0.097666293 -0.078892604 1.935417e-038
-0.060078256 0.097665526 -0.078831188 2.2389093e-038
-0.058098271 0.096889488 -0.078132518 9.6502815e-039
-0.056388274 0.097663961 -0.07870844 2.3120923e-038
-0.054403454 0.096887909 -0.078009628 1.0937781e-038
-0.0525565 0.096887104 -0.077948205 2.2376894e-038
-0.05085554 0.097661555 -0.078524455 1.2041992e-038
-0.049011901 0.097660743 -0.078463174 1.5905555e-038
-0.047017481 0.096884653 -0.077764086 1.3598504e-038
-0.045171753 0.096883819 -0.077702753 2.0618692e-038
-0.043169796 0.096107706 -0.077003427 1.5918524e-038
-0.041640408 0.097657405 -0.078218237 1.3337762e-038
-0.039798297 0.097656555 -0.078157052 2.0074516e-038
-0.03795651 0.097655699 -0.078095883 8.2738379e-039
-0.035947677 0.096879564 -0.077396356 2.0729966e-038
-0.03393377 0.096103415 -0.076696686 1.5645888e-038
-0.03208746 0.096102543 -0.076635383 1.1949783e-038
-0.03024146 0.096101657 -0.076574095 2.0061196e-038
-0.028217632 0.095325492 -0.075874113 1.9233232e-038
-0.026731245 0.096875176 -0.077090397 2.0541268e-038
-0.024888881 0.096874282 -0.077029258 1.8334696e-038
-0.023046799 0.096873388 -0.076968126 1.6964364e-038
-0.021016059 0.096097201 -0.07626792 1.2177757e-038
-0.018980227 0.095321007 -0.075567558 9.4180037e-039
-0.017133616 0.095320106 -0.075506292 1.3466327e-038
-0.015484349 0.096094489 -0.07608439 1.3364786e-038
-0.013840784 0.09686888 -0.076662675 1.7146617e-038
-0.012202894 0.097643256 -0.07724116 1.1072155e-038
-0.010160403 0.096867062 -0.076540582 2.6082074e-039
-0.0083205998 0.096866153 -0.076479554 1.139208e-039
-0.006270559 0.096089937 -0.075778723 2.1942092e-040
-0.004428626 0.096089028 -0.075717628 2.1977825e-040
-0.0023710188 0.095312811 -0.075016558 4.9600501e-040
-0.00052692601 0.095311895 -0.074955389 4.0489118e-040
0.0019809119 0.092985027 -0.072973721 4.0381498e-040
0.0047286693 0.089882843 -0.070351273 2.1906359e-040
-0.10156537 0.085676208 -0.072859593 7.8319146e-039
-0.10047365 0.094221726 -0.079759896 1.5663783e-038
-0.098689713 0.094998136 -0.080330797 1.6586461e-038
-0.096833497 0.094997637 -0.080268674 1.5481244e-038
-0.094977491 0.09499713 -0.080206573 1.354913e-038
-0.093205109 0.095773511 -0.080777898 1.7045707e-038
-0.091438413 0.096549869 -0.081349432 1.8892854e-038
-0.089588568 0.096549325 -0.081287578 1.843693e-038
-0.087647445 0.095771879 -0.080592074 1.8342211e-038
-0.085795395 0.095771305 -0.080530174 1.7880877e-038
-0.084137507 0.097324587 -0.081736058 1.9264527e-038
-0.082391068 0.098100901 -0.082308352 1.908013e-038
-0.08065033 0.098877214 -0.08288084 1.2894729e-038
-0.078810178 0.098876603 -0.082819395 1.8528379e-038
-0.076862469 0.098099083 -0.082123749 1.8068501e-038
-0.074909642 0.097321548 -0.081427947 1.7973788e-038
-0.072951622 0.096543953 -0.080731958 1.6034772e-038
-0.070988484 0.095766395 -0.080035836 1.7049619e-038
-0.069138862 0.09576574 -0.079974137 1.8334637e-038
-0.067289539 0.095765069 -0.079912469 1.7319055e-038
-0.065564565 0.096541308 -0.080485582 1.8429726e-038
-0.063972123 0.098094501 -0.081693783 1.7600317e-038
-0.062261321 0.098870724 -0.082267404 1.0860331e-038
-0.060291789 0.098093107 -0.081571139 1.84157e-038
-0.058182184 0.096538521 -0.080239549 1.2040531e-038
-0.05633733 0.096537799 -0.080178097 2.3490431e-038
-0.054352421 0.095760167 -0.079481348 1.1856505e-038
-0.052648518 0.096536346 -0.080055252 2.0990354e-038
-0.050804567 0.096535608 -0.079993851 1.7204574e-038
-0.048960917 0.096534863 -0.079932474 2.0238752e-038
-0.047117583 0.096534111 -0.079871111 1.5071118e-038
-0.045274548 0.096533358 -0.079809763 2.3479997e-038
-0.043431826 0.096532591 -0.079748452 1.2787104e-038
-0.041589394 0.096531823 -0.079687141 2.0990718e-038
-0.039747287 0.096531041 -0.07962586 1.7121739e-038
-0.037905496 0.096530259 -0.079564594 1.9618944e-038
-0.036063988 0.096529476 -0.079503343 2.1100911e-038
-0.034052674 0.095751762 -0.078805804 1.0018358e-038
-0.032036278 0.094974026 -0.07810811 1.9692425e-038
-0.030541312 0.096527092 -0.079319693 1.5726218e-038
-0.028879268 0.097303271 -0.079895094 1.4527306e-038
-0.027041972 0.097302467 -0.079834022 1.3696825e-038
-0.025021367 0.096524663 -0.07913617 1.2129146e-038
-0.023181984 0.096523851 -0.079075024 9.6614723e-039
-0.0213429 0.096523032 -0.079013892 1.2819895e-038
-0.019312387 0.09574528 -0.078315772 5.091695e-039
-0.017471174 0.095744453 -0.07825458 1.088812e-038
-0.015630286 0.095743626 -0.078193396 1.5394535e-038
-0.013989478 0.096519738 -0.07876952 1.677891e-038
-0.012151839 0.096518911 -0.078708448 1.2729147e-038
-0.010724931 0.09807203 -0.079922356 1.4855059e-038
-0.0086853197 0.097294256 -0.079223931 3.6180279e-039
-0.0068512093 0.097293429 -0.079162985 6.8110953e-040
-0.0048040482 0.096515588 -0.078464292 5.8856077e-040
-0.0027517776 0.095737815 -0.07776545 3.1197388e-040
-0.00091305049 0.09573698 -0.077704348 3.1161655e-040
0.00092539412 0.095736153 -0.07764326 2.1942092e-040
0.0029876875 0.094958365 -0.076944083 3.1125922e-040
0.0048283506 0.094957538 -0.076882914 6.8003893e-040
0.0066687465 0.094956703 -0.076821759 7.3080027e-039
0.0085089039 0.094955876 -0.076760605 1.33828e-038
0.010818604 0.093401082 -0.075422518 1.6326209e-038
0.012901256 0.092623301 -0.074722663 1.6785381e-038
-0.10165761 0.064283222 -0.058026448 1.3092095e-038
-0.10186314 0.088418178 -0.077515453 1.0963658e-038
-0.10078583 0.096981965 -0.084392391 1.5846725e-038
-0.098864935 0.096202977 -0.083699569 1.6858737e-038
-0.096938819 0.095423922 -0.083006561 1.6859816e-038
-0.095088243 0.095423467 -0.082944572 1.7046719e-038
-0.093321361 0.096201606 -0.083513893 1.668044e-038
-0.091560148 0.096979678 -0.084083378 1.9631831e-038
-0.089804612 0.097757742 -0.084653072 1.8712085e-038
-0.087779947 0.096200131 -0.083328404 1.8342585e-038
-0.086027622 0.096978173 -0.083898231 1.8712439e-038
-0.084183946 0.096977659 -0.083836563 1.843693e-038
-0.082540028 0.098534249 -0.085038491 1.9442442e-038
-0.080702312 0.098533712 -0.084977038 1.1783705e-038
-0.078759693 0.097754605 -0.084283642 1.9171943e-038
-0.07681191 0.096975483 -0.083590075 1.8896819e-038
-0.074858986 0.096196361 -0.082896359 1.8987224e-038
-0.0730142 0.09619578 -0.082834721 1.7326616e-038
-0.07128574 0.096973754 -0.083405435 1.8619149e-038
-0.069325499 0.096194603 -0.082711503 1.8154577e-038
-0.067603044 0.096972562 -0.083282448 1.7411971e-038
-0.065637954 0.096193396 -0.082588375 2.0367995e-038
-0.064175233 0.098528482 -0.084424943 1.1795975e-038
-0.062340301 0.098527864 -0.084363699 1.9259487e-038
-0.060505696 0.09852723 -0.084302478 1.4827262e-038
-0.058536377 0.097748019 -0.083608299 1.4611202e-038
-0.056561921 0.0969688 -0.082913958 1.6823534e-038
-0.054722771 0.096968152 -0.082852617 1.5632922e-038
-0.052883938 0.096967489 -0.082791284 1.1960223e-038
-0.050899558 0.096188255 -0.082096651 1.5182749e-038
-0.049058605 0.096187584 -0.082035273 1.2589752e-038
-0.047066715 0.095408276 -0.081340365 1.2772344e-038
-0.04553159 0.096964791 -0.082546152 1.895917e-038
-0.043537609 0.096185528 -0.081851229 2.3484316e-038
-0.041857246 0.096963413 -0.082423702 1.2867422e-038
-0.040020544 0.096962713 -0.082362495 1.7760271e-038
-0.038184147 0.096962005 -0.082301311 1.1954828e-038
-0.036348045 0.096961297 -0.082240142 2.1180151e-038
-0.034512259 0.096960582 -0.082178995 1.2794672e-038
-0.032503884 0.096181288 -0.081483617 2.2289018e-038
-0.030841589 0.096959144 -0.082056731 9.5710647e-039
-0.029006695 0.096958421 -0.081995621 2.3487923e-038
-0.027353125 0.097736284 -0.082569025 1.1321703e-038
-0.025154158 0.096178375 -0.081238858 1.4628145e-038
-0.023503868 0.096956231 -0.081812374 1.6405071e-038
-0.021670178 0.096955493 -0.081751332 1.3100445e-038
-0.020028582 0.097733349 -0.082325153 1.7845522e-039
-0.018003691 0.09695401 -0.081629261 1.9703756e-039
-0.016368069 0.097731866 -0.082203299 1.1728679e-038
-0.014538251 0.097731121 -0.082142383 1.1447412e-038
-0.012911281 0.098508976 -0.082716703 1.6970487e-038
-0.011084724 0.098508231 -0.082655899 1.5955973e-038
-0.0092584351 0.098507486 -0.082595117 1.0980669e-038
-0.0070110522 0.096949533 -0.081263356 1.4139872e-039
-0.0049665314 0.096170187 -0.080566816 1.1388423e-039
-0.0027007861 0.094612189 -0.079234414 1.5068891e-039
-0.0012996425 0.096168689 -0.080444768 2.2408444e-039
0.00053340732 0.096167937 -0.080383748 2.5170768e-039
0.0023662187 0.096167192 -0.080322742 1.505457e-039
0.004198777 0.096166447 -0.080261745 2.7032743e-039
0.0060311118 0.096165702 -0.080200747 1.2459764e-038
0.0078631788 0.096164957 -0.080139756 1.6049985e-038
0.0099299932 0.095385551 -0.079442441 6.7282225e-040
0.011289004 0.096942082 -0.080654189 1.8764059e-039
0.014800065 0.091490969 -0.076137885 3.4429931e-039
-0.10160423 0.063089259 -0.059584625 1.2540361e-038
-0.1015323 0.084154762 -0.076492064 1.2260176e-038
-0.10037225 0.091956548 -0.08271604 1.6493544e-038
-0.098739162 0.094296783 -0.084540114 1.7780694e-038
-0.096966438 0.095076643 -0.085106976 1.9165413e-038
-0.095118567 0.095076233 -0.085045025 2.0738109e-038
-0.093437985 0.096636236 -0.08624126 1.862119e-038
-0.091596022 0.096635804 -0.086179525 1.8158802e-038
-0.089843266 0.097415581 -0.08674708 1.3548398e-038
-0.087821156 0.095854707 -0.085426755 8.0163339e-039
-0.085977219 0.095854253 -0.08536499 1.5024263e-038
-0.084133536 0.095853791 -0.08530324 1.7883389e-038
-0.082489751 0.097413749 -0.086500786 1.8525526e-038
-0.080652028 0.097413272 -0.086439259 1.7413049e-038
-0.078814559 0.09741278 -0.086377755 1.8987938e-038
-0.076977357 0.097412288 -0.086316265 1.8343294e-038
-0.074919105 0.095851339 -0.084994815 1.7419904e-038
-0.073190413 0.09663105 -0.085563272 1.8156745e-038
-0.071351342 0.096630529 -0.08550176 1.8803189e-038
-0.069512546 0.09663 -0.085440263 1.8803189e-038
-0.06779556 0.097409688 -0.086009145 1.7783638e-038
-0.065960057 0.097409144 -0.085947782 1.0962991e-038
-0.064124838 0.0974086 -0.085886426 7.9237837e-039
-0.062289909 0.097408041 -0.085825086 1.7232975e-038
-0.060455296 0.097407483 -0.085763782 1.8703774e-038
-0.058485892 0.096626684 -0.085071668 1.3882277e-038
-0.056649141 0.09662611 -0.085010305 1.4336058e-038
-0.054812677 0.096625529 -0.084948957 1.757227e-038
-0.053119741 0.097405173 -0.08551871 2.2480242e-038
-0.051140696 0.096624345 -0.08482632 1.7869752e-038
-0.049305167 0.096623749 -0.084765024 2.0914357e-038
-0.047318611 0.095842913 -0.084072396 1.8698784e-038
-0.045480981 0.095842302 -0.084011048 1.9327953e-038
-0.043800376 0.096621923 -0.084581241 1.2967175e-038
-0.041966073 0.096621297 -0.08452002 1.3603909e-038
-0.040132068 0.096620679 -0.084458806 1.379154e-038
-0.038298372 0.096620053 -0.084397614 1.2224215e-038
-0.036464982 0.09661942 -0.084336437 1.3339923e-038
-0.034461617 0.095838539 -0.08364328 1.8047663e-038
-0.03262613 0.095837899 -0.083582044 1.445347e-038
-0.03079094 0.095837258 -0.083520822 1.7869752e-038
-0.029134426 0.096616849 -0.084091865 1.5283231e-038
-0.027302556 0.096616201 -0.084030762 1.5010967e-038
-0.025470972 0.096615553 -0.083969675 9.7432212e-039
-0.023639683 0.096614897 -0.083908595 1.604421e-038
-0.021808706 0.096614242 -0.083847538 4.3534083e-039
-0.019977998 0.096613578 -0.08378648 1.3250146e-039
-0.018147603 0.096612915 -0.083725438 1.5115582e-039
-0.016514767 0.097392507 -0.084297299 1.4161102e-039
-0.014887622 0.098172083 -0.084869348 4.363848e-039
-0.013063466 0.09817142 -0.084808521 1.54968e-038
-0.011034245 0.09739051 -0.084114559 1.6601344e-038
-0.0092079453 0.097389847 -0.084053658 1.1627114e-038
-0.0069604348 0.095828667 -0.082726113 3.8953351e-039
-0.0047023362 0.09426745 -0.081398159 5.7773294e-040
-0.0028660875 0.09426678 -0.081336938 2.5865433e-039
-0.0012489476 0.095046416 -0.081909359 8.0174087e-039
0.00036257668 0.095826 -0.082481936 9.4925499e-039
0.0021926742 0.095825329 -0.082420915 8.7668987e-039
0.0037955905 0.096604921 -0.082993776 6.9323622e-039
0.0056225155 0.096604258 -0.08293286 1.2181371e-038
0.0072168685 0.097383857 -0.083506003 1.5222024e-038
0.0097457115 0.095042415 -0.081542753 2.7819978e-041
0.011101876 0.096602276 -0.082750142 3.721043e-039
0.013889547 0.093480527 -0.080151908 4.8284513e-039
-0.10148364 0.061113343 -0.060516439 1.3091743e-038
-0.10113093 0.079096101 -0.074859463 1.0882681e-038
-0.10003074 0.087696403 -0.081687912 1.1623486e-038
-0.098311551 0.089259788 -0.082878426 1.0424946e-038
-0.096681617 0.091605075 -0.084696099 1.1258307e-038
-0.09474472 0.090822846 -0.084006965 1.4852493e-038
-0.093136989 0.093168072 -0.085825376 1.7614362e-038
-0.09128686 0.093167692 -0.085763298 1.7702938e-038
-0.089704089 0.095512964 -0.087582603 1.6504803e-038
-0.087770849 0.094730698 -0.08689364 7.8507186e-039
-0.086021356 0.095512167 -0.087459087 1.3371952e-038
-0.084180385 0.095511764 -0.087397359 1.6595847e-038
-0.082539454 0.097075082 -0.088590585 1.7517795e-038
-0.080704436 0.097074658 -0.088529073 1.7885514e-038
-0.078975007 0.097856149 -0.08909528 1.7790103e-038
-0.077035189 0.097073793 -0.088406116 1.5669249e-038
-0.075200967 0.097073354 -0.088344656 1.0412725e-038
-0.073253572 0.096291035 -0.087655306 1.7419565e-038
-0.071533374 0.097072445 -0.088221811 1.8987577e-038
-0.069581099 0.096290112 -0.087532312 1.8615912e-038
-0.067866892 0.097071514 -0.088099033 1.7229375e-038
-0.065909781 0.096289165 -0.087409385 1.8426112e-038
-0.064201578 0.09707056 -0.087976329 1.7413387e-038
-0.062239617 0.096288197 -0.087286524 1.8335675e-038
-0.060404994 0.096287705 -0.087225124 1.8150199e-038
-0.05870581 0.097069077 -0.087792389 1.7492647e-038
-0.057012338 0.097850494 -0.088359907 1.6466277e-038
-0.05518401 0.097849987 -0.088298723 1.1768975e-038
-0.053355984 0.097849473 -0.088237576 2.1464273e-038
-0.05138227 0.097067021 -0.087547392 1.7876198e-038
-0.04955215 0.097066499 -0.087486185 1.9537528e-038
-0.047570918 0.096284091 -0.086795807 1.6402877e-038
-0.045892797 0.097065434 -0.087363824 1.8985075e-038
-0.044063594 0.09706489 -0.087302662 1.6864589e-038
-0.042394206 0.097846285 -0.087871023 1.806026e-038
-0.040243857 0.096281923 -0.086550847 1.8520516e-038
-0.038577784 0.097063251 -0.087119281 1.8152455e-038
-0.036749791 0.097062699 -0.087058187 2.0179683e-038
-0.034922097 0.097062141 -0.086997107 1.0034209e-038
-0.032921698 0.096279696 -0.086306117 1.2526725e-038
-0.030916164 0.095497236 -0.085614964 1.8431203e-038
-0.029262424 0.096278563 -0.086183846 8.3692789e-039
-0.027614385 0.097059876 -0.086752906 2.0363354e-038
-0.02560438 0.096277416 -0.086061627 9.9340935e-039
-0.023962326 0.097058728 -0.086630896 1.6592342e-038
-0.021947499 0.096276261 -0.08593946 6.1962237e-039
-0.020311464 0.097057573 -0.086508937 1.8788862e-039
-0.018291794 0.096275106 -0.085817337 1.7856158e-039
-0.016859109 0.097838357 -0.087017789 1.7870591e-039
-0.015037369 0.097837776 -0.086956941 1.7859815e-039
-0.01341867 0.098619096 -0.087527014 2.9794688e-039
-0.010983884 0.096272767 -0.085573241 6.0168785e-039
-0.0087413099 0.094708376 -0.084250055 1.58788e-039
-0.0064882217 0.093143933 -0.082926489 1.9357565e-039
-0.0044381712 0.092361443 -0.082233883 5.0660737e-039
-0.0030316818 0.093924709 -0.083435215 8.1945832e-039
-0.0014173 0.094706021 -0.084005438 9.5746226e-039
0.00019142288 0.095487341 -0.084575854 1.0312186e-038
0.002018851 0.095486753 -0.084514812 1.1513971e-038
0.0036189803 0.096268073 -0.085085504 1.0693233e-038
0.0052134949 0.097049393 -0.085656382 1.4385398e-038
0.0070348019 0.097048812 -0.085595541 1.5493555e-038
0.0093260463 0.095484421 -0.084270746 1.1074312e-038
0.011152253 0.09548384 -0.084209733 1.4082181e-039
0.013459238 0.093919441 -0.082884394 4.4546283e-039
-0.10109352 0.056000009 -0.058955755 1.3644554e-038
-0.10051865 0.071670339 -0.071375631 1.1619881e-038
-0.099251911 0.078721814 -0.076930687 1.3559247e-038
-0.097656704 0.081855647 -0.079364918 1.3743638e-038
-0.096083485 0.084989414 -0.081799857 1.2729488e-038
-0.094289377 0.085772663 -0.082361571 9.8746756e-039
-0.092584603 0.087339394 -0.083548196 2.6002508e-039
-0.09071818 0.087339059 -0.083485499 1.8637746e-039
-0.08894109 0.088122249 -0.084047779 3.2467062e-039
-0.087169684 0.088905424 -0.084610254 1.7755573e-039
-0.085403986 0.089688644 -0.085172951 3.8953351e-039
-0.083741203 0.091255344 -0.086361051 1.6601658e-038
-0.081989586 0.092038505 -0.08692421 2.0101793e-038
-0.080551721 0.095172293 -0.089363821 2.0009598e-038
-0.07881964 0.095955446 -0.089927651 2.0560259e-038
-0.077093244 0.096738644 -0.09049172 1.6319651e-038
-0.075261749 0.096738257 -0.090430282 3.5175226e-039
-0.073430516 0.096737869 -0.090368852 1.4477229e-038
-0.071599551 0.096737474 -0.090307444 1.7696448e-038
-0.069768883 0.096737079 -0.090246059 1.8802766e-038
-0.067816809 0.095953099 -0.089558609 1.8988554e-038
-0.065859608 0.095169164 -0.088871025 1.8334944e-038
-0.064024374 0.095168747 -0.088809513 1.8704081e-038
-0.062189445 0.095168322 -0.088748008 1.9256519e-038
-0.060354803 0.095167898 -0.088686511 1.7132789e-038
-0.058655679 0.095950991 -0.089251526 1.8972061e-038
-0.056962289 0.096734136 -0.089816794 1.9615306e-038
-0.055133965 0.096733697 -0.089755535 2.0265705e-038
-0.053449273 0.09751679 -0.090321057 1.6581455e-038
-0.05162425 0.097516343 -0.090259917 1.5658047e-038
-0.049799547 0.097515889 -0.0901988 1.5658413e-038
-0.04782366 0.096731894 -0.089510657 1.6399578e-038
-0.046151016 0.097514972 -0.09007661 1.5850043e-038
-0.044327211 0.09751451 -0.090015538 1.6035891e-038
-0.042503718 0.097514041 -0.089954473 1.6496514e-038
-0.040518228 0.096730024 -0.089266025 1.6496881e-038
-0.03869262 0.096729554 -0.089204907 1.6773475e-038
-0.036867343 0.09672907 -0.089143798 1.6404338e-038
-0.035042364 0.096728593 -0.08908271 1.5665337e-038
-0.033217665 0.096728109 -0.089021631 1.7510333e-038
-0.031393308 0.096727625 -0.088960566 1.6958955e-038
-0.029569237 0.096727133 -0.088899516 1.6225345e-038
-0.027745459 0.096726641 -0.08883848 1.4476509e-038
-0.026105896 0.097509697 -0.089405581 1.455215e-038
-0.024285411 0.097509198 -0.089344658 1.5583225e-038
-0.022275906 0.096725158 -0.088655442 3.9028418e-039
-0.020261291 0.095941067 -0.087966017 2.7079042e-039
-0.018241568 0.09515702 -0.087276481 2.8915892e-039
-0.01661158 0.095940061 -0.087843902 2.1554731e-039
-0.014987295 0.096723154 -0.08841157 2.2476659e-039
-0.012963016 0.095939055 -0.087721825 3.3496821e-039
-0.010522609 0.093587898 -0.085774265 1.8673409e-039
-0.0072334511 0.08810243 -0.081310354 3.6069422e-042
-0.0049613351 0.086534813 -0.079990394 1.4776496e-039
-0.003746744 0.088884957 -0.081815675 2.6704251e-039
-0.0027649293 0.092018709 -0.084270738 5.9826168e-039
-0.0013669289 0.093585357 -0.08546795 7.8250804e-039
0.00024170242 0.094368406 -0.086036101 9.4845794e-039
0.0020691417 0.094367899 -0.085974954 1.0408702e-038
0.0032150038 0.096718103 -0.087802567 1.0783618e-038
0.0050338199 0.096717604 -0.08774171 1.456653e-038
0.0070848917 0.095933497 -0.087051071 1.5492834e-038
0.0091411471 0.095149443 -0.086360298 1.5957421e-038
0.01096467 0.095148943 -0.086299285 8.5850214e-039
0.013269087 0.093581319 -0.084978238 6.2823167e-039
-0.10124225 0.057151582 -0.062393233 1.3185376e-038
-0.10046652 0.070499502 -0.072903618 5.269241e-039
-0.098981798 0.075210363 -0.076572418 4.7236328e-039
-0.097227551 0.076780453 -0.07775297 8.4092818e-039
-0.095484398 0.078350596 -0.078933939 1.3561046e-038
-0.093590297 0.07835032 -0.078870237 1.3835474e-038
-0.091780193 0.079135232 -0.079429135 1.0704438e-038
-0.089975759 0.079920128 -0.079988256 4.5352885e-039
-0.088355362 0.08227542 -0.081793174 9.4833154e-040
-0.086567745 0.083060309 -0.082352862 6.7318939e-040
-0.084880412 0.084630415 -0.083535761 3.966011e-040
-0.083106875 0.085415296 -0.08409594 8.5756804e-040
-0.08143907 0.086985357 -0.08527948 2.1075529e-040
-0.079782397 0.088555448 -0.086463422 5.7954061e-040
-0.078242332 0.090910681 -0.088271052 1.7769978e-039
-0.076502442 0.091695592 -0.088832423 2.7918588e-039
-0.074768268 0.092480443 -0.089393958 3.7141836e-039
-0.073039785 0.093265302 -0.08995571 1.0898913e-038
-0.071433328 0.094835334 -0.091141336 1.8439053e-038
-0.069599926 0.094834998 -0.091079772 1.9453164e-038
-0.067766823 0.094834656 -0.091018222 1.9823366e-038
-0.065934017 0.094834313 -0.090956688 1.8710906e-038
-0.064228661 0.095619194 -0.091519266 1.7043485e-038
-0.062399134 0.095618837 -0.091457851 1.749799e-038
-0.060702506 0.096403666 -0.092020698 1.6944083e-038
-0.058876287 0.096403308 -0.091959417 1.7681641e-038
-0.057188366 0.09718813 -0.092522569 1.6944793e-038
-0.055224735 0.096402571 -0.091836885 1.694479e-038
-0.05339941 0.096402198 -0.091775633 1.6946222e-038
-0.051574394 0.096401818 -0.091714405 1.639736e-038
-0.049898505 0.097186632 -0.092277989 1.6398444e-038
-0.048076801 0.097186252 -0.092216879 1.6122212e-038
-0.046255387 0.097185865 -0.092155792 1.5571565e-038
-0.044434279 0.09718547 -0.092094705 1.5111315e-038
-0.042613499 0.097185075 -0.092033647 1.4930164e-038
-0.040792994 0.097184688 -0.091972589 1.4193339e-038
-0.03897281 0.097184286 -0.091911554 1.4196244e-038
-0.036985159 0.096398689 -0.091225103 1.3831075e-038
-0.035333358 0.097183481 -0.091789514 1.3373723e-038
-0.033340894 0.096397877 -0.09110292 1.6869635e-038
-0.03169512 0.097182669 -0.09166754 1.5395584e-038
-0.030055024 0.097967453 -0.092232354 1.0982792e-038
-0.028239368 0.097967044 -0.092171483 8.131927e-039
-0.026607998 0.098751873 -0.092736639 1.0155555e-038
-0.024795618 0.098751463 -0.09267588 8.2226919e-039
-0.022794129 0.097965799 -0.091988958 4.2726879e-039
-0.020787561 0.09718018 -0.091301903 3.7206016e-039
-0.01897064 0.097179763 -0.091240995 2.8933786e-039
-0.017154032 0.097179338 -0.091180116 2.3412797e-039
-0.015337721 0.097178921 -0.091119237 2.8008145e-039
-0.013115905 0.095608085 -0.089805171 4.6371643e-039
-0.010472354 0.092466809 -0.087237321 1.0811018e-041
-0.0063495208 0.083829008 -0.080281228 1.0789998e-042
-0.0038555078 0.081472963 -0.078338243 1.2014144e-039
-0.0032686952 0.086183801 -0.082037419 1.8439014e-039
-0.0024981636 0.090109438 -0.085110635 4.3277716e-039
-0.0015357661 0.09324988 -0.087557621 6.8130879e-039
-0.00037343171 0.095605113 -0.089378111 1.0039205e-038
0.00099694123 0.097175106 -0.090571791 1.1240628e-038
0.0028106312 0.097174682 -0.090511002 1.4012982e-038
0.004624038 0.097174264 -0.090450227 1.6595188e-038
0.0066697742 0.096388631 -0.089761853 1.3461637e-038
0.0084854448 0.096388213 -0.089701004 1.1346553e-038
0.010538836 0.095602579 -0.08901237 1.3562501e-038
0.012838018 0.094031699 -0.087695673 1.5038707e-038
-0.10125647 0.05673936 -0.064577952 1.3277575e-038
-0.1004847 0.070115484 -0.075051621 4.2583344e-039
-0.098857231 0.073262654 -0.07746733 4.9091115e-039
-0.097024739 0.074049279 -0.07802324 6.8416127e-039
-0.095119521 0.07404907 -0.077959076 9.6938815e-039
-0.093214542 0.074048847 -0.077894941 1.3008594e-038
-0.091393635 0.074835457 -0.078451261 1.27295e-038
-0.089578398 0.075622059 -0.079007775 6.0082409e-039
-0.087858111 0.07719554 -0.08018516 1.1316424e-039
-0.086148933 0.078768983 -0.081362866 5.8027349e-040
-0.084261507 0.078768738 -0.08129935 5.8027209e-040
-0.082471751 0.079555377 -0.081856787 5.8062802e-040
-0.080687687 0.08034195 -0.082414396 6.7354392e-040
-0.079012141 0.081915379 -0.083593264 5.8134829e-040
-0.077136658 0.081915118 -0.083530165 4.8843239e-040
-0.07558623 0.08427541 -0.085330926 5.7990635e-040
-0.073830403 0.085061982 -0.085889488 4.8915266e-040
-0.072193965 0.086635381 -0.087069705 9.490406e-040
-0.070452288 0.087421998 -0.087628789 1.685877e-039
-0.068835407 0.088995405 -0.088809676 4.8147424e-039
-0.067229681 0.090568848 -0.089990973 9.6056543e-039
-0.065510534 0.091355398 -0.090550803 1.6787139e-038
-0.063797116 0.092141956 -0.091110826 1.4745878e-038
-0.062089417 0.092928514 -0.091671057 1.6398554e-038
-0.060520101 0.094501942 -0.092853591 1.6209828e-038
-0.058961906 0.096075334 -0.094036475 1.6946995e-038
-0.057000607 0.095288195 -0.093352936 1.6392367e-038
-0.055315766 0.096074738 -0.093913943 1.6577099e-038
-0.053636655 0.096861281 -0.094475143 1.7038783e-038
-0.052109454 0.098434702 -0.095659122 1.6579956e-038
-0.050295562 0.098434396 -0.095598184 1.65796e-038
-0.048330355 0.09764725 -0.094914533 1.6215128e-038
-0.046360023 0.096860044 -0.094230667 1.5110587e-038
-0.044384599 0.096072882 -0.093546681 1.5480808e-038
-0.042563807 0.096072562 -0.093485519 1.5481529e-038
-0.040743314 0.096072242 -0.093424372 1.4929086e-038
-0.038923137 0.096071921 -0.093363233 1.3459014e-038
-0.037103254 0.096071593 -0.093302116 1.3277502e-038
-0.03528367 0.096071266 -0.093241006 1.1439731e-038
-0.033464383 0.096070938 -0.093179904 1.1348633e-038
-0.03164541 0.096070603 -0.093118824 1.1257523e-038
-0.030184088 0.097644016 -0.094305046 8.1329681e-039
-0.028371116 0.097643688 -0.094244167 7.9518251e-039
-0.026926579 0.099217042 -0.095430933 6.4806593e-039
-0.024932841 0.098429859 -0.094746359 6.1115236e-039
-0.022933993 0.097642675 -0.094061606 7.2153559e-039
-0.020930037 0.096855439 -0.093376651 6.6618261e-039
-0.01911583 0.096855104 -0.093315735 6.0179127e-039
-0.017301906 0.096854761 -0.093254834 5.373995e-039
-0.015688585 0.097641319 -0.093818344 5.3736307e-039
-0.013674948 0.096854076 -0.09313307 5.6491302e-039
-0.011861903 0.096853733 -0.093072198 4.2654741e-039
-0.009215665 0.093705922 -0.090512797 5.3907952e-042
-0.00654813 0.090558164 -0.087952718 1.1092174e-039
-0.0027905032 0.083476022 -0.082267806 1.2932443e-039
-0.0017984828 0.086623095 -0.084705032 1.7531463e-039
-0.0014857498 0.092130832 -0.089018025 2.0268409e-039
-0.00054548029 0.095277958 -0.091457032 1.4750536e-038
0.00082204747 0.096851334 -0.092646375 1.5488821e-038
0.0026330233 0.096850991 -0.092585579 1.6873178e-038
0.0046736756 0.096063785 -0.091899432 1.659625e-038
0.006719511 0.095276587 -0.091213122 1.5670707e-038
0.0080645364 0.096849971 -0.092403218 1.1246058e-038
0.009874573 0.096849628 -0.092342444 5.9221494e-039
0.012406509 0.094488703 -0.09040454 5.6498827e-039
-0.1013385 0.05711896 -0.067376144 1.3277942e-038
-0.10050311 0.06973476 -0.077195331 3.7048075e-039
-0.098805621 0.07210011 -0.078984499 3.7112955e-039
-0.096973188 0.072888441 -0.079538189 4.6325288e-039
-0.094989508 0.07209979 -0.078855865 5.08953e-039
-0.093000628 0.071311131 -0.078173384 1.2088807e-038
-0.091258243 0.072887942 -0.079345569 1.3281945e-038
-0.089440376 0.073676258 -0.079899766 6.5596126e-039
-0.087806828 0.076041587 -0.081691116 1.0394496e-039
-0.086097792 0.07761839 -0.082864441 4.8772193e-040
-0.08430513 0.078406744 -0.083419539 3.9695703e-040
-0.082225725 0.076829523 -0.082118541 6.7354392e-040
-0.080436312 0.077617824 -0.082673714 3.9695703e-040
-0.078446783 0.076829135 -0.081991248 7.6501788e-040
-0.076557718 0.076828934 -0.081927612 9.4868887e-040
-0.074668929 0.076828733 -0.081863999 6.7281944e-040
-0.07300251 0.078405559 -0.083038837 3.0440547e-040
-0.071233481 0.079193838 -0.083594725 4.8843239e-040
-0.06958662 0.080770619 -0.08477018 7.6357454e-040
-0.067950919 0.08234743 -0.085946061 1.3156665e-039
-0.066448234 0.084712699 -0.087741829 1.4064188e-039
-0.064962119 0.087078005 -0.089538209 2.0507022e-039
-0.063365228 0.088654771 -0.090715371 3.2463517e-039
-0.061649483 0.089443095 -0.091273107 5.6362284e-039
-0.05993944 0.090231359 -0.091831006 6.6442483e-039
-0.058099676 0.090231135 -0.091769084 9.4029075e-039
-0.056398343 0.091019407 -0.092327282 1.4556813e-038
-0.054843623 0.092596158 -0.093505874 1.6213041e-038
-0.053156439 0.093384475 -0.094064593 1.676547e-038
-0.051767543 0.095749728 -0.095864229 1.7224985e-038
-0.050097231 0.096538037 -0.096423529 1.731789e-038
-0.048432633 0.097326294 -0.096982963 1.6306615e-038
-0.046464946 0.09653756 -0.096301302 1.6215862e-038
-0.044492137 0.095748775 -0.095619433 1.5479015e-038
-0.042833872 0.096537076 -0.096179128 1.5388613e-038
-0.0411813 0.097325325 -0.096738994 1.5296786e-038
-0.039534464 0.098113574 -0.097299069 1.4194048e-038
-0.037389528 0.096536331 -0.095995978 1.3551564e-038
-0.035575368 0.096536085 -0.09593495 1.199216e-038
-0.033761494 0.096535832 -0.09587393 1.1717036e-038
-0.031947929 0.096535578 -0.095812932 1.0248022e-038
-0.030313408 0.09732382 -0.096373416 9.1463732e-039
-0.028684584 0.098112069 -0.096934095 8.043641e-039
-0.026877308 0.098111816 -0.096873313 7.8606902e-039
-0.025070341 0.098111555 -0.096812539 8.3213139e-039
-0.023074133 0.097322792 -0.096129932 8.5950295e-039
-0.021265039 0.097322531 -0.09606909 1.0161278e-038
-0.019651173 0.09811078 -0.096630275 1.2645902e-038
-0.017647726 0.097322017 -0.095947437 1.0710525e-038
-0.016039845 0.098110259 -0.096508823 8.8720101e-039
-0.014234621 0.098109998 -0.096448116 6.3856078e-039
-0.012635377 0.098898247 -0.097009793 6.6625604e-039
-0.010624948 0.098109476 -0.096326724 6.6593164e-039
-0.0081871292 0.095743649 -0.094398297 2.2231194e-039
-0.0046642581 0.089435294 -0.08935608 3.9460565e-042
-0.0026141698 0.088646472 -0.088671647 1.5691096e-039
-0.0027511737 0.095742866 -0.094215497 8.9436431e-039
-0.0016054714 0.098108165 -0.096023396 1.5213655e-038
0.00019765249 0.098107904 -0.095962763 1.5950511e-038
0.0026824584 0.095742077 -0.094032764 1.5950866e-038
0.0044931923 0.095741808 -0.093971863 1.5121828e-038
0.0063036885 0.095741548 -0.093910977 9.4028458e-039
0.007878568 0.096529841 -0.094473518 9.0391234e-039
0.0096858917 0.096529588 -0.094412729 5.0970648e-039
0.012456145 0.093375236 -0.091857672 4.7297256e-039
-0.10121791 0.05513465 -0.068318926 1.0974506e-038
-0.1003106 0.066986896 -0.077487752 1.0886312e-038
-0.098607898 0.069357216 -0.079270162 7.2917799e-039
-0.096770093 0.070147298 -0.079821475 8.1215405e-039
-0.094859444 0.070147187 -0.079757005 1.300824e-038
-0.093030274 0.070937216 -0.080308579 1.374364e-038
-0.091290742 0.072517388 -0.081476457 9.2296734e-039
-0.089562334 0.074097596 -0.082644768 3.9806714e-039
-0.087666251 0.074097469 -0.082580805 1.1320025e-039
-0.085862525 0.074887492 -0.083133258 1.0405272e-039
-0.083969668 0.074887365 -0.083069406 9.4940914e-040
-0.082174607 0.07567738 -0.08362215 9.4868887e-040
-0.080284998 0.075677246 -0.08355841 9.479686e-040
-0.078395657 0.075677112 -0.083494693 8.5541564e-040
-0.076400898 0.074886821 -0.082814142 6.7100757e-040
-0.074509405 0.07488668 -0.082750358 1.0394215e-039
-0.072729297 0.075676687 -0.083303615 2.3276408e-039
-0.071068741 0.077256888 -0.084474243 5.2710416e-039
-0.069186233 0.077256739 -0.084410772 8.2158956e-039
-0.067542531 0.078836881 -0.085581928 1.1806825e-038
-0.065666012 0.078836732 -0.085518666 1.2174526e-038
-0.064039186 0.080416873 -0.086690396 1.2173083e-038
-0.062423479 0.081997059 -0.087862544 1.3002123e-038
-0.060688801 0.082787052 -0.088417359 1.3276916e-038
-0.058827065 0.082786895 -0.08835461 1.2083051e-038
-0.057236642 0.084367029 -0.089527585 1.0979569e-038
-0.055380914 0.084366873 -0.08946503 8.9537801e-039
-0.053948317 0.086737208 -0.091256656 8.7704622e-039
-0.052244961 0.087527193 -0.091812544 9.8721295e-039
-0.050840054 0.089897528 -0.093605094 1.0147636e-038
-0.049153563 0.090687513 -0.094161548 1.1799966e-038
-0.047472786 0.091477491 -0.094718188 1.1616298e-038
-0.045643263 0.09147732 -0.094656542 1.1527685e-038
-0.043814026 0.091477156 -0.094594896 1.1618066e-038
-0.042464785 0.093847483 -0.096389346 1.4011171e-038
-0.040806882 0.094637468 -0.096946768 1.4195535e-038
-0.039154716 0.095427498 -0.09750443 1.4104758e-038
-0.037340239 0.095427319 -0.09744329 1.3275352e-038
-0.035526082 0.095427148 -0.097382165 1.3094551e-038
-0.034232419 0.097797431 -0.099178456 1.263645e-038
-0.032426961 0.097797252 -0.099117622 1.1168514e-038
-0.030800603 0.09858723 -0.099676125 1.0985561e-038
-0.028816938 0.097796902 -0.098995999 1.0255188e-038
-0.02682817 0.097006567 -0.098315701 9.0588088e-039
-0.024647374 0.095426083 -0.097015642 9.7935026e-039
-0.023024913 0.096216053 -0.097574279 1.3656071e-038
-0.021408159 0.09700603 -0.09813311 1.6970808e-038
-0.019407043 0.096215695 -0.097452402 1.7706908e-038
-0.017203091 0.094635159 -0.096151516 1.6049915e-038
-0.015589924 0.095425181 -0.096710511 1.6327963e-038
-0.013982372 0.096215144 -0.097269647 1.2548661e-038
-0.01279214 0.098585434 -0.099069439 8.228042e-039
-0.010992848 0.098585248 -0.099008814 7.4004324e-039
-0.0089826155 0.09779492 -0.098327801 8.8723268e-039
-0.0065394575 0.095424265 -0.096405618 6.1957851e-039
-0.0045135897 0.094633877 -0.095724046 6.4571833e-042
-0.0031404467 0.096214056 -0.096904412 4.5200634e-039
-0.002000344 0.098584339 -0.098705888 1.6318942e-038
-0.00020261505 0.09858416 -0.098645322 1.2083338e-038
0.0020496361 0.097003669 -0.097342864 6.0041912e-039
0.0043124012 0.095423169 -0.096040048 5.6418911e-039
0.0058874264 0.096213147 -0.096600279 6.4778034e-039
0.0076923193 0.096212961 -0.096539475 5.7420489e-039
0.0092587965 0.097002946 -0.097100005 5.3739838e-039
0.012746504 0.091471553 -0.092689365 6.3852505e-039
-0.10143786 0.033351883 -0.053999387 1.2353445e-038
-0.101165 0.053938866 -0.069879495 8.946576e-039
-0.10011788 0.064232357 -0.0777888 1.0611532e-038
-0.098336786 0.06581594 -0.078950927 1.1717879e-038
-0.096490905 0.066607676 -0.079499692 1.2179934e-038
-0.094650693 0.067399412 -0.080048658 1.2363237e-038
-0.092816167 0.068191148 -0.080597825 1.0979225e-038
-0.091071352 0.069774732 -0.081761181 1.0239509e-038
-0.089337654 0.071358263 -0.082924865 1.4849281e-038
-0.087436132 0.071358196 -0.082860649 1.1904793e-038
-0.085627042 0.072149917 -0.08341068 9.048896e-039
-0.08372876 0.07214985 -0.083346568 7.2089617e-039
-0.081928357 0.072941624 -0.083896928 7.0238502e-039
-0.080133639 0.073733352 -0.084447451 9.0496149e-039
-0.078241594 0.07373327 -0.084383562 1.116975e-038
-0.076349802 0.073733196 -0.084319688 1.4480497e-038
-0.074458301 0.073733114 -0.084255822 1.4757077e-038
-0.072678275 0.074524835 -0.084806837 1.3006087e-038
-0.070903949 0.075316563 -0.085358061 1.4941467e-038
-0.069135346 0.076108329 -0.085909508 1.4757066e-038
-0.067253135 0.076108247 -0.085845962 1.0978829e-038
-0.065493256 0.076899953 -0.08639767 1.3374117e-038
-0.063614346 0.076899871 -0.086334236 1.3924434e-038
-0.061990652 0.078483388 -0.087501667 1.4845311e-038
-0.060378104 0.080066949 -0.088669516 1.1520873e-038
-0.058510941 0.08006686 -0.088606484 1.5211215e-038
-0.056508459 0.079274923 -0.087927729 1.2452539e-038
-0.054500893 0.07848303 -0.087248832 1.1440534e-038
-0.052770235 0.079274736 -0.087801538 7.1155652e-039
-0.051045299 0.080066495 -0.088354476 7.7609346e-039
-0.049472507 0.081650011 -0.089523636 1.3832216e-038
-0.048059996 0.084025376 -0.091309361 1.1335388e-038
-0.04651219 0.085608892 -0.092479378 1.4010511e-038
-0.044820968 0.086400598 -0.093033418 1.2171283e-038
-0.043135487 0.087192357 -0.093587689 1.1712102e-038
-0.041775625 0.089567676 -0.095375158 1.3646762e-038
-0.040106978 0.090359375 -0.095929958 7.014802e-039
-0.038609434 0.091942936 -0.097101711 8.0303833e-039
-0.036786839 0.091942839 -0.097040199 1.1436919e-038
-0.035135344 0.092734545 -0.097595587 1.355521e-038
-0.03383651 0.09510991 -0.099385157 1.3926142e-038
-0.032378022 0.096693426 -0.10055818 1.2550754e-038
-0.030930636 0.098276988 -0.10173163 1.2368506e-038
-0.028768007 0.096693225 -0.10043636 1.0531054e-038
-0.026779164 0.095901318 -0.099758118 1.0163713e-038
-0.024972204 0.095901221 -0.099697143 1.2093035e-038
-0.023544898 0.097484723 -0.10087122 1.6235748e-038
-0.02193632 0.098276481 -0.1014281 1.6602335e-038
-0.019943222 0.097484522 -0.10074967 1.5777176e-038
-0.017747257 0.095900811 -0.099453323 1.3841426e-038
-0.015741246 0.095108904 -0.0987745 8.1268515e-039
-0.014136495 0.09590061 -0.099331476 1.5961333e-038
-0.012743309 0.097484112 -0.10050672 1.0344209e-038
-0.011152602 0.098275878 -0.1010642 8.3198579e-039
-0.0093562771 0.098275773 -0.10100357 8.1354666e-039
-0.0073462445 0.097483814 -0.10032458 8.5950099e-039
-0.0053310595 0.096691906 -0.099645451 9.7913894e-039
-0.0037495126 0.097483605 -0.10020321 2.1301698e-039
-0.0021736091 0.098275363 -0.1007612 4.8949611e-039
-0.00037857867 0.098275259 -0.10070062 7.7634681e-039
0.0016436945 0.0974833 -0.10002122 8.5017535e-039
0.0036710771 0.096691392 -0.099341676 7.5823335e-039
0.0054707834 0.096691296 -0.099280946 6.9391361e-039
0.0072702812 0.096691191 -0.099220216 6.3870483e-039
0.0093077468 0.095899284 -0.098540336 6.6625492e-039
0.013277792 0.088772804 -0.09290617 7.0288178e-039
-0.10157838 0.034493353 -0.057449687 1.2262334e-038
-0.10104435 0.051949624 -0.070828818 5.8180539e-039
-0.099854417 0.060677767 -0.0774872 1.6844364e-039
-0.09799207 0.061471213 -0.078033186 1.5011312e-039
-0.096135393 0.062264659 -0.078579374 1.6844504e-039
-0.094284393 0.063058101 -0.079125747 2.4209253e-039
-0.092601851 0.065438502 -0.080895759 1.2179213e-038
-0.090767629 0.066231944 -0.081442699 1.3373775e-038
-0.089025944 0.067818888 -0.082601763 1.3556709e-038
-0.087116271 0.067818865 -0.082537197 1.1898267e-038
-0.085299119 0.068612315 -0.083084717 1.4108811e-038
-0.083392672 0.068612292 -0.083020262 1.5121527e-038
-0.081779577 0.070992649 -0.084792592 1.5303751e-038
-0.079781413 0.070199184 -0.084116086 1.4106286e-038
-0.077984333 0.070992619 -0.084664285 1.4477585e-038
-0.075981282 0.070199147 -0.083987609 1.3368732e-038
-0.074298754 0.071786083 -0.08514867 1.4383607e-038
-0.072627351 0.073372982 -0.086310074 1.2727331e-038
-0.070853099 0.074166425 -0.086859047 1.2822049e-038
-0.069201283 0.075753361 -0.088021159 1.4297514e-038
-0.067321777 0.075753346 -0.087957621 1.3378083e-038
-0.065442562 0.075753324 -0.08789409 1.3010035e-038
-0.063438825 0.074959859 -0.087217398 1.3279785e-038
-0.061557498 0.074959837 -0.087153792 1.4382167e-038
-0.059936963 0.076546729 -0.08831691 1.6682733e-038
-0.058194619 0.077340171 -0.088866971 1.7512494e-038
-0.056186676 0.076546691 -0.088190131 1.4569435e-038
-0.054173611 0.075753212 -0.087513126 1.1438748e-038
-0.052437603 0.076546647 -0.088063389 7.6666412e-039
-0.050707329 0.077340089 -0.08861386 7.942861e-039
-0.048836268 0.077340066 -0.088550605 1.1622058e-038
-0.047263943 0.078927003 -0.089715399 1.1338277e-038
-0.045398921 0.07892698 -0.089652359 1.327583e-038
-0.043843456 0.08051388 -0.090817682 1.3186514e-038
-0.041984469 0.080513857 -0.090754837 1.0884505e-038
-0.040285826 0.081307292 -0.091306373 1.383368e-038
-0.038430188 0.08130727 -0.091243647 1.4202458e-038
-0.036905754 0.082894206 -0.092410058 5.3614226e-039
-0.035224266 0.083687648 -0.092962168 1.8684718e-039
-0.03389021 0.086068049 -0.094743982 1.0401614e-039
-0.032572675 0.088448398 -0.09652631 5.7990635e-040
-0.031271666 0.090828791 -0.098309234 8.5684777e-040
-0.029808216 0.09241569 -0.099477679 1.6862399e-039
-0.027629234 0.090828747 -0.098186105 3.989316e-039
-0.025992826 0.091622189 -0.098739758 5.8342739e-039
-0.024362106 0.092415623 -0.099293575 9.0618202e-039
-0.023306407 0.095589474 -0.10169375 1.6607082e-038
-0.021502728 0.095589459 -0.10163277 1.632761e-038
-0.019699346 0.095589437 -0.10157181 1.3108931e-038
-0.017698389 0.09479595 -0.10089523 1.2096929e-038
-0.015892876 0.094795927 -0.1008342 5.6429645e-039
-0.014290886 0.09558937 -0.101389 1.5041172e-038
-0.012694596 0.096382797 -0.10194398 1.2002631e-038
-0.01110398 0.097176284 -0.10249922 9.6098456e-039
-0.0095189949 0.097969718 -0.1030546 9.0591802e-039
-0.0075115887 0.097176239 -0.10237779 9.5183577e-039
-0.0057158032 0.097176217 -0.10231708 9.6098288e-039
-0.0037008324 0.096382685 -0.10163997 9.2417806e-039
-0.002347125 0.097969629 -0.10281216 8.6893355e-039
-0.00055477861 0.097969607 -0.10275158 8.9644888e-039
0.0010097881 0.098763041 -0.10330764 8.6871915e-039
0.0034896098 0.096382596 -0.10139691 8.5046051e-039
0.0052866172 0.096382573 -0.10133617 8.4124081e-039
0.007083416 0.096382551 -0.10127543 8.4117004e-039
0.0091182692 0.095589072 -0.10059769 8.871245e-039
0.013809267 0.08606746 -0.093131572 8.8708905e-039
-0.10165426 0.034849692 -0.060278069 1.2632193e-038
-0.10099152 0.050752178 -0.072391555 7.2020491e-039
-0.099661194 0.057908319 -0.077807717 1.9613778e-039
-0.097793482 0.05870346 -0.078351289 8.5648063e-040
-0.095855407 0.058703497 -0.078285702 7.6501928e-040
-0.093996324 0.05949869 -0.078829601 8.5577297e-040
-0.092142917 0.060293846 -0.079373665 8.9541669e-039
-0.09037938 0.061884113 -0.080527559 1.3834753e-038
-0.088453159 0.06188415 -0.080462359 1.3003907e-038
-0.086706437 0.063474454 -0.081616849 1.1253996e-038
-0.084878497 0.06426961 -0.082161777 1.493894e-038
-0.083056234 0.065064766 -0.082706884 1.5029697e-038
-0.081239685 0.065859914 -0.083252192 1.447508e-038
-0.079328343 0.065859959 -0.083187491 1.5212645e-038
-0.077417299 0.065860003 -0.083122797 1.4385038e-038
-0.075612441 0.066655204 -0.08366853 1.5305915e-038
-0.073813282 0.067450367 -0.084214419 1.5121892e-038
-0.072242513 0.069835745 -0.085981607 1.1438389e-038
-0.070460208 0.070630945 -0.0865281 6.4688505e-039
-0.068683624 0.071426108 -0.087074749 6.5603231e-039
-0.066912748 0.072221272 -0.087621592 5.3632415e-039
-0.065147601 0.073016435 -0.088168614 4.3512503e-039
-0.063138366 0.072221369 -0.087493815 1.3279062e-038
-0.061379232 0.073016524 -0.088041045 6.6215304e-039
-0.059756145 0.074606843 -0.089199722 1.0476462e-038
-0.058011174 0.075402007 -0.089747429 1.1587484e-038
-0.056136172 0.075402059 -0.08968395 1.484242e-038
-0.054261487 0.075402111 -0.089620478 9.5934e-039
-0.052387115 0.075402156 -0.089557022 9.1385413e-039
-0.050656907 0.076197326 -0.090105236 1.033564e-038
-0.048639283 0.075402267 -0.089430131 1.1991561e-038
-0.04706439 0.076992534 -0.090590395 1.189325e-038
-0.045196682 0.076992586 -0.090527162 1.2908122e-038
-0.043638662 0.078582913 -0.091688015 1.0516078e-038
-0.041462164 0.076992698 -0.090400718 1.0239499e-038
-0.039755497 0.077787906 -0.090949751 1.4202816e-038
-0.037566092 0.076197699 -0.089662015 1.4479757e-038
-0.036028296 0.077788018 -0.090823561 1.2824569e-038
-0.034165155 0.077788077 -0.090760477 7.4808459e-039
-0.032815076 0.08017347 -0.092535116 5.7919449e-040
-0.03113432 0.080968633 -0.093084998 3.9624657e-040
-0.029811895 0.083354071 -0.094860628 1.2001421e-040
-0.02814794 0.084149227 -0.09541107 5.8062802e-040
-0.026489727 0.084944449 -0.095961742 7.6429481e-040
-0.025021615 0.086534724 -0.097125605 1.0419565e-039
-0.023751749 0.088920154 -0.098903 8.5864423e-040
-0.022498399 0.091305546 -0.10068092 1.0397873e-039
-0.020876464 0.092100762 -0.10123283 2.6049396e-039
-0.01906497 0.092100814 -0.10117149 3.7108738e-039
-0.017055828 0.091305718 -0.10049663 5.4622026e-039
-0.015442875 0.092100933 -0.10104883 8.4077726e-039
-0.014038906 0.0936912 -0.10221488 1.5501783e-038
-0.01244 0.094486371 -0.10276752 1.2739805e-038
-0.010846721 0.095281534 -0.10332035 1.1083499e-038
-0.0090477057 0.095281594 -0.10325944 1.0165508e-038
-0.0072489595 0.095281646 -0.10319853 1.0163698e-038
-0.0054504815 0.095281705 -0.10313763 1.0255528e-038
-0.003871782 0.096076921 -0.103691 9.3353957e-039
-0.0025209056 0.097667195 -0.10485884 9.5190779e-039
-0.00095619145 0.098462366 -0.10541263 9.4268823e-039
0.0010581352 0.097667307 -0.10473765 9.4265264e-039
0.0035381566 0.095281988 -0.10283326 9.241796e-039
0.0055681355 0.094486944 -0.10215775 9.3332699e-039
0.0071319412 0.095282108 -0.10271157 9.0566831e-039
0.0091668637 0.094487056 -0.10203589 9.7006231e-039
-0.10166528 0.034415841 -0.062490933 1.2999542e-038
-0.10087082 0.048757959 -0.073347382 1.1162057e-038
-0.099467762 0.055132285 -0.078136906 8.5860598e-039
-0.097594686 0.055929139 -0.078678079 3.9835202e-039
-0.09565118 0.055929225 -0.078612238 1.409653e-039
-0.093707912 0.055929311 -0.078546405 1.1323487e-039
-0.091846429 0.056726173 -0.079087958 4.9076709e-039
-0.090074897 0.058319841 -0.08023721 6.0118577e-039
-0.088227503 0.059116706 -0.08077924 8.7733924e-039
-0.086296111 0.059116803 -0.080713794 8.9563319e-039
-0.084549785 0.060710438 -0.081863873 1.0152347e-038
-0.08252921 0.059913769 -0.08119078 9.9675929e-039
-0.080797009 0.061507452 -0.082341351 3.4271458e-039
-0.078774266 0.060710743 -0.081668153 3.3363978e-039
-0.076952919 0.061507657 -0.082211077 3.2423973e-039
