# .PCD v0.7 - Point Cloud Data file format
VERSION 0.7
FIELDS x y z rgb
SIZE 4 4 4 4
TYPE F F F F
COUNT 1 1 1 1
WIDTH 931
HEIGHT 1
VIEWPOINT 0 0 0 1 0 0 0
POINTS 931
DATA ascii
-0.046664435 0.07171759 0.025956225 1.7704078e-038
-0.04431757 0.070266441 0.027430888 1.8071784e-038
-0.042100754 0.069539309 0.02820147 1.8348007e-038
-0.039878812 0.068812102 0.028972222 1.0603574e-038
-0.037943777 0.06953308 0.028333915 1.8808983e-038
-0.036163166 0.070978068 0.026990797 1.4292119e-038
-0.034090862 0.070974901 0.027056741 1.6044555e-038
-0.031864759 0.07024762 0.027827445 1.6966511e-038
-0.029476712 0.068796188 0.029303225 1.466162e-038
-0.027237695 0.06806884 0.030074274 1.5030403e-038
-0.025155811 0.068065561 0.030140402 1.6689924e-038
-0.023239147 0.068786368 0.029501343 1.6689924e-038
-0.021160584 0.068783045 0.029567307 1.6874316e-038
-0.019252632 0.069503874 0.028927892 1.6136752e-038
-0.017177371 0.069500536 0.028993707 1.5583578e-038
-0.015102396 0.069497176 0.029059498 1.5675777e-038
-0.013206162 0.07021793 0.028419681 1.6689926e-038
-0.011134492 0.070214562 0.028485339 1.6136752e-038
-0.0094307791 0.071659431 0.027139466 1.6413342e-038
-0.0073650796 0.071656048 0.027204908 1.7149828e-038
-0.0051104464 0.070928514 0.027976235 1.6965436e-038
-0.0028507053 0.070200957 0.028747726 1.6135676e-038
-0.00097509829 0.070921697 0.028107191 1.7150904e-038
0.00050011167 0.073090777 0.026054064 1.7519686e-038
0.0027590482 0.072363175 0.026825549 1.7519685e-038
0.0052258335 0.070911437 0.028303504 1.7704076e-038
0.0074977144 0.070183851 0.029075356 1.7704076e-038
0.0093584433 0.070904598 0.028434325 1.7980665e-038
0.011424368 0.070901185 0.028499726 1.8257254e-038
0.013490039 0.070897773 0.028565131 1.7796273e-038
0.015987877 0.069445997 0.030044079 1.7888469e-038
0.017839564 0.070166774 0.029402796 1.7888468e-038
0.019907186 0.070163377 0.029468279 1.8624948e-038
0.02152599 0.071608379 0.028119706 1.0940656e-038
0.023587786 0.071605012 0.028185038 1.4069528e-038
0.025879027 0.070877448 0.028957574 1.443687e-038
0.028175509 0.070149899 0.029730301 1.4526554e-038
0.030006967 0.070870772 0.029088458 1.4158491e-038
0.03183287 0.071591675 0.028446464 1.4433638e-038
0.034374569 0.070139937 0.029926943 1.4435797e-038
0.03692691 0.068688169 0.031407833 1.3702189e-038
0.039243925 0.067960657 0.032181315 1.3242647e-038
0.04131769 0.067957416 0.032247208 1.2967504e-038
0.043139998 0.068678431 0.031605236 1.251947e-038
0.044702824 0.070123769 0.030255107 1.3178153e-038
0.0465114 0.070844859 0.029612765 1.4652916e-038
0.048833087 0.070117474 0.030386571 1.4929137e-038
0.050898045 0.070114382 0.030452361 1.4191198e-038
0.052962895 0.070111319 0.030518189 1.1885603e-038
0.054760247 0.070832551 0.029875657 1.077855e-038
0.057362355 0.069381014 0.031358443 1.0962578e-038
0.059702475 0.06865374 0.03213311 1.10562e-038
0.06177235 0.068650812 0.032199282 1.1055469e-038
0.06356401 0.069372237 0.031556714 1.1331335e-038
0.065631106 0.069369391 0.031622913 1.1609371e-038
0.067698188 0.069366597 0.031689163 1.1889563e-038
0.069478996 0.070088133 0.031046463 1.1800626e-038
0.071543343 0.070085421 0.031112742 1.096763e-038
0.074190974 0.06863413 0.032597482 1.1237368e-038
0.076555043 0.067907214 0.03337333 1.2970008e-038
0.078627527 0.067904644 0.033440065 1.3793662e-038
0.080400378 0.068626441 0.032797437 1.3793309e-038
0.081865497 0.070072651 0.031445146 1.3516723e-038
0.083930083 0.070070259 0.031511843 1.3884785e-038
0.086302519 0.069343612 0.03228832 1.4345762e-038
0.088680491 0.068616979 0.033065099 1.4162447e-038
0.090750821 0.068614766 0.033132233 1.3703265e-038
0.093137071 0.067888282 0.033909395 1.3978056e-038
-0.12723492 0.061832413 0.030063827 4.1458999e-039
-0.1253144 0.066184819 0.025941439 1.2598735e-038
-0.12335703 0.069085978 0.023215476 1.3699319e-038
-0.12123383 0.068359062 0.023983173 1.4343964e-038
-0.11918587 0.069083288 0.023353031 1.5360636e-038
-0.11710054 0.069081858 0.023421681 1.5733739e-038
-0.11501537 0.069080368 0.023490259 1.5738062e-038
-0.11288196 0.068353221 0.024258008 1.6844055e-038
-0.11079442 0.068351626 0.024326524 1.6016455e-038
-0.10876095 0.069075584 0.02369553 1.4915506e-038
-0.10673307 0.069799498 0.023064287 1.4913707e-038
-0.10465154 0.069797747 0.023132399 1.6201206e-038
-0.10257024 0.069795936 0.023200423 1.4079626e-038
-0.10048911 0.069794081 0.023268385 1.610793e-038
-0.09840823 0.069792166 0.023336262 1.5376482e-038
-0.096327558 0.069790199 0.023404062 1.5653429e-038
-0.094319977 0.070513822 0.022771755 1.527889e-038
-0.092242457 0.070511773 0.022839336 1.3156227e-038
-0.09016519 0.070509665 0.022906832 1.2873159e-038
-0.08792612 0.069056235 0.024374871 1.3516369e-038
-0.085927643 0.069779664 0.023742013 1.4069897e-038
-0.083934836 0.070503056 0.023108909 1.4069175e-038
-0.081947714 0.071226403 0.022475559 1.397338e-038
-0.079782508 0.070498422 0.023243289 1.443544e-038
-0.077517569 0.069044739 0.024711868 1.471059e-038
-0.075533934 0.069767967 0.024078229 1.1950848e-038
-0.073555999 0.07049115 0.023444355 2.2945895e-038
-0.071583763 0.071214303 0.022810245 1.881078e-038
-0.069406353 0.070486084 0.023578078 1.9178486e-038
-0.067331947 0.070483483 0.02364484 1.8257251e-038
-0.065146953 0.069755189 0.02441282 1.8441643e-038
-0.063070394 0.069752514 0.024479562 1.7519686e-038
-0.060994141 0.069749802 0.024546228 1.7888469e-038
-0.058918171 0.069747053 0.024612848 1.8810425e-038
-0.056720782 0.06901858 0.025381027 1.7519686e-038
-0.054642677 0.069015764 0.025447624 1.6413337e-038
-0.052564893 0.069012903 0.02551415 1.8349446e-038
-0.050876897 0.071187101 0.023475004 1.8718228e-038
-0.048675291 0.070458487 0.024243141 1.8626034e-038
-0.046874322 0.071906999 0.022905208 1.8626034e-038
-0.044532649 0.070452571 0.024375511 1.8163615e-038
-0.042602446 0.071175277 0.023739399 1.6227151e-038
-0.040391229 0.070446536 0.024507688 1.0695769e-038
-0.038467053 0.071169198 0.023871303 1.8440202e-038
-0.0363998 0.071166113 0.023937197 1.5489942e-038
-0.034332879 0.071163014 0.024003044 1.6321143e-038
-0.032112084 0.070434153 0.024771499 1.6044556e-038
-0.029886147 0.069705263 0.025540091 1.6966511e-038
-0.02749553 0.068250597 0.027011646 1.4938207e-038
-0.025581326 0.068973139 0.02637477 1.5214794e-038
-0.023672825 0.069695666 0.025737686 1.521551e-038
-0.021770043 0.070418172 0.025100386 1.6874316e-038
-0.019702563 0.070414923 0.025166065 1.7427489e-038
-0.017635377 0.070411652 0.02523171 1.6597729e-038
-0.015568491 0.070408374 0.025297323 1.659773e-038
-0.013858925 0.07185667 0.023956018 1.7611882e-038
-0.011616825 0.071127556 0.024724962 1.7335295e-038
-0.0095535256 0.071124241 0.024790416 1.5583581e-038
-0.0073039173 0.070395142 0.025559532 1.5766893e-038
-0.0050491998 0.069666021 0.026328798 1.7334219e-038
-0.0027893432 0.068936884 0.027098214 1.6320067e-038
-0.0013032603 0.071110919 0.025052028 1.7704078e-038
0.00036374235 0.072559215 0.023709288 1.7796273e-038
0.0024199239 0.072555877 0.023774462 1.6874316e-038
0.0048814891 0.071100876 0.025248064 1.6689924e-038
0.0071480339 0.070371702 0.026017671 1.6874316e-038
0.0090033095 0.07109417 0.025378712 1.7611882e-038
0.011063841 0.071090825 0.025444021 1.8165056e-038
0.012910496 0.071813345 0.024804745 1.7611882e-038
0.015184128 0.071084142 0.02557463 1.7980665e-038
0.017243883 0.071080804 0.025639936 1.7796991e-038
0.019081719 0.071803361 0.025000405 1.8441277e-038
0.021138346 0.071800053 0.02506564 1.0574397e-038
0.023194719 0.071796753 0.025130868 1.3791865e-038
0.025710436 0.070341714 0.02660626 1.4342162e-038
0.027771782 0.070338428 0.026671674 1.4433638e-038
0.029597759 0.071061023 0.026031893 1.4709504e-038
0.031418122 0.071783684 0.025391903 1.4986811e-038
0.033954553 0.070328668 0.026868019 1.5545026e-038
0.036501635 0.068873703 0.028344471 9.4766704e-039
0.038813312 0.068144619 0.029115714 1.0491538e-038
0.040633015 0.068867318 0.028475849 1.1320217e-038
0.042447131 0.069590047 0.027835838 7.7389636e-039
0.044001676 0.071038701 0.026489859 1.8624505e-038
0.045802046 0.071761541 0.025849434 1.8162807e-038
0.0481157 0.071032539 0.026620936 1.7608911e-038
0.050434642 0.070303589 0.027392615 1.5579887e-038
0.052758809 0.069574684 0.028164499 1.5487329e-038
0.05401836 0.071749471 0.026111538 1.4104757e-038
0.056612521 0.070294663 0.027589878 1.3091325e-038
0.058944546 0.06956584 0.028362144 1.3921797e-038
0.061006278 0.069562964 0.028428113 1.3828516e-038
0.062789761 0.07028605 0.027787542 1.3275352e-038
0.065129615 0.069557339 0.028560212 1.2814385e-038
0.067474887 0.06882865 0.029333111 1.5027801e-038
0.069252826 0.06955187 0.028692519 1.3185697e-038
0.071025401 0.070275143 0.028051814 1.7886223e-038
0.073376015 0.069546595 0.028825061 1.354331e-038
0.07602641 0.068092138 0.030305669 1.2341534e-038
0.078390516 0.06736362 0.03107952 1.3257032e-038
0.080460273 0.067361146 0.031146282 1.3432799e-038
0.081622697 0.069536634 0.02909095 1.3245534e-038
0.083684459 0.069534272 0.029157588 1.3795108e-038
0.086054228 0.068806015 0.029931875 1.3701469e-038
0.088429481 0.068077803 0.030706409 1.4162444e-038
0.090183742 0.068801589 0.030065753 1.4162444e-038
0.091932729 0.069525436 0.029424993 1.4346838e-038
0.095269643 0.066619448 0.032323711 1.3887306e-038
-0.12717631 0.060548749 0.028388632 4.4232056e-039
-0.12528835 0.065638334 0.023582663 1.2414344e-038
-0.1233339 0.068546131 0.020865265 1.4527635e-038
-0.12121326 0.067817591 0.02163076 1.3975182e-038
-0.11920835 0.069270745 0.020305905 1.6927241e-038
-0.11712836 0.069269359 0.020374425 1.5824494e-038
-0.11509432 0.069995165 0.019745866 1.6563502e-038
-0.1129204 0.068539143 0.021208312 1.6293042e-038
-0.11094065 0.069992095 0.019882342 1.693985e-038
-0.10886408 0.069990486 0.019950464 1.6479235e-038
-0.10684437 0.070716128 0.019321121 1.4451288e-038
-0.10477091 0.070714414 0.019389005 1.5557633e-038
-0.10269766 0.070712656 0.019456819 1.5650908e-038
-0.10055982 0.069983527 0.020222221 1.4822222e-038
-0.098551795 0.070708975 0.019592227 1.6757251e-038
-0.096549414 0.071434334 0.01896202 1.6116206e-038
-0.094552718 0.072159655 0.018331561 1.4175056e-038
-0.092258982 0.069975764 0.020492811 1.5275284e-038
-0.090262733 0.070701033 0.019862171 1.6467349e-038
-0.088109948 0.069971591 0.020627676 1.5637588e-038
-0.086119622 0.070696771 0.019996723 1.5451755e-038
-0.084048435 0.070694581 0.020063907 1.3975185e-038
-0.081888266 0.06996499 0.020829462 1.4709147e-038
-0.079814881 0.069962703 0.020896593 1.5077209e-038
-0.07764709 0.06923306 0.021662245 1.4800268e-038
-0.075571515 0.069230691 0.021729339 1.4158144e-038
-0.073596299 0.069955572 0.021097595 2.0269342e-038
-0.07162679 0.070680477 0.020465577 1.8994095e-038
-0.069557466 0.070677973 0.020532291 1.871823e-038
-0.067488432 0.070675433 0.020598952 1.8441646e-038
-0.065308705 0.069945507 0.021364721 1.8072863e-038
-0.063237526 0.069942884 0.021431338 1.7796273e-038
-0.061282996 0.07066761 0.020798584 1.7796273e-038
-0.059215084 0.07066492 0.020865008 1.8902621e-038
-0.057147477 0.0706622 0.020931389 1.825725e-038
-0.054831181 0.069204725 0.022396846 1.6689924e-038
-0.052885953 0.069929272 0.021763641 1.825725e-038
-0.050816551 0.069926456 0.021829944 1.7888823e-038
-0.048880059 0.070650995 0.021196341 1.8441641e-038
-0.046949279 0.071375459 0.02056255 1.8165056e-038
-0.044886183 0.071372554 0.020628529 1.8532762e-038
-0.042682644 0.07064227 0.021394536 1.7057632e-038
-0.040330581 0.069184527 0.022860851 1.097272e-038
-0.038552579 0.070636317 0.021526432 1.9362523e-038
-0.036636874 0.071360663 0.020891981 1.8717153e-038
-0.034575317 0.07135763 0.020957727 1.8626037e-038
-0.032359809 0.07062719 0.021723947 1.8441646e-038
-0.030296165 0.070624098 0.021789702 1.7519686e-038
-0.02823283 0.070620991 0.02185542 1.6689926e-038
-0.026169807 0.070617869 0.021921111 1.5675772e-038
-0.024272179 0.071342118 0.02128591 1.6044555e-038
-0.022212462 0.071338959 0.021351445 1.6413337e-038
-0.020153057 0.071335778 0.021416938 1.7150902e-038
-0.018093962 0.071332589 0.021482408 1.6597729e-038
-0.016211048 0.072056808 0.020846661 1.7887749e-038
-0.014155258 0.072053589 0.020911986 1.5951285e-038
-0.012099737 0.07205037 0.020977294 1.7610806e-038
-0.010044558 0.072047129 0.02104257 1.7334219e-038
-0.0078029372 0.071316451 0.021809356 1.6596654e-038
-0.005556237 0.070585757 0.022576297 1.6320423e-038
-0.0034964841 0.070582494 0.022641689 1.6413339e-038
-0.0016318406 0.071306661 0.022005267 1.5860164e-038
0.00062209892 0.070575938 0.022772413 1.5952359e-038
0.0026809885 0.070572652 0.022837752 1.7335294e-038
0.0049425075 0.069841877 0.023605179 1.5491383e-038
0.0072091366 0.069111124 0.024372717 1.5860165e-038
0.0092725996 0.069107831 0.024438197 1.7980665e-038
0.011124851 0.069832012 0.023801375 1.8902621e-038
0.0129714 0.070556238 0.023164326 1.8810425e-038
0.014812333 0.07128045 0.022527153 1.8902619e-038
0.016866723 0.071277186 0.022592373 1.8811143e-038
0.018920816 0.071273923 0.022657581 2.0193714e-038
0.021199197 0.070543185 0.023425536 1.0208151e-038
0.023255581 0.070539951 0.023490848 1.3607844e-038
0.025541553 0.069809169 0.024259103 1.4894249e-038
0.027600173 0.06980595 0.024324518 1.4617309e-038
0.029423321 0.070530295 0.023686828 1.4708429e-038
0.031716812 0.069799557 0.024455382 1.4616954e-038
0.033774819 0.069796383 0.024520835 1.4712027e-038
0.035589311 0.070520788 0.023882929 1.4258243e-038
0.037644275 0.070517659 0.023948336 1.3894857e-038
0.039699063 0.070514545 0.024013771 1.4170002e-038
0.042005107 0.069783881 0.024782849 1.3161966e-038
0.043808158 0.070508391 0.024144694 1.4931274e-038
0.045862492 0.070505351 0.024210196 1.7701097e-038
0.04791671 0.070502341 0.024275733 2.0007077e-038
0.05023298 0.069771767 0.025045283 1.8255005e-038
0.052289605 0.069768809 0.025110975 1.5397295e-038
0.053811066 0.071221046 0.02376846 1.4201267e-038
0.056132354 0.070490599 0.024538245 1.3832472e-038
0.058186058 0.070487738 0.024603968 1.5212165e-038
0.060239684 0.070484929 0.024669746 1.3921076e-038
0.062014904 0.071209714 0.024031108 1.2909454e-038
0.064346753 0.070479408 0.024801437 1.3647361e-038
0.066683941 0.069749087 0.025572021 1.5951527e-038
0.068740092 0.069746435 0.025638085 1.4292388e-038
0.070507072 0.070471443 0.024999365 1.7428114e-038
0.072560534 0.070468873 0.025065457 2.0835038e-038
0.074908473 0.069738723 0.025836624 8.8438707e-039
0.077261791 0.069008648 0.026607983 1.1140872e-038
0.079620533 0.068278626 0.02737958 1.0585554e-038
0.081379637 0.069003843 0.02674097 9.1129368e-039
0.083438694 0.069001526 0.02680758 1.2601605e-038
0.085805707 0.068271652 0.027579656 1.3793309e-038
0.087246381 0.069724664 0.026235513 1.388514e-038
0.089303032 0.069722518 0.026302269 1.4253922e-038
0.091043763 0.070448086 0.025663389 1.4068821e-038
0.09469147 0.066807926 0.02925903 1.4069541e-038
-0.12711775 0.059264909 0.026713213 4.2388143e-039
-0.12529476 0.06582392 0.020533543 1.2415064e-038
-0.12331098 0.068009421 0.018519159 1.4711311e-038
-0.12123059 0.068008155 0.018587872 1.4343244e-038
-0.11923116 0.069464698 0.017267141 1.5821614e-038
-0.11715654 0.069463335 0.017335523 1.5455711e-038
-0.11512791 0.070190825 0.016708985 1.4446245e-038
-0.11295919 0.068731487 0.018167024 1.4816468e-038
-0.11093365 0.069458917 0.017540211 1.527889e-038
-0.10885973 0.069457345 0.017608289 1.4450931e-038
-0.10689945 0.070913553 0.016285904 1.4451288e-038
-0.10489079 0.071640797 0.015658375 1.5557636e-038
-0.10276344 0.070910156 0.01642134 1.5190636e-038
-0.10076064 0.071637303 0.015793491 1.4452363e-038
-0.098763481 0.07236442 0.015165393 1.5467956e-038
-0.096701659 0.07236255 0.015232684 1.5928935e-038
-0.094567038 0.0716317 0.015995637 1.1959483e-038
-0.092351466 0.070171878 0.017454524 1.4258254e-038
-0.090203732 0.069440931 0.01821778 1.4898947e-038
-0.088131994 0.06943886 0.018285144 1.4898227e-038
-0.086144365 0.070165694 0.017656367 1.517589e-038
-0.084075823 0.070163548 0.017723512 1.3792235e-038
-0.082096845 0.070890307 0.01709434 1.4802066e-038
-0.080031544 0.070888072 0.017161267 1.4526555e-038
-0.077776998 0.069427885 0.018621003 1.4800991e-038
-0.075609311 0.068696566 0.01938455 1.360749e-038
-0.073636837 0.069423199 0.018754898 1.8790612e-038
-0.071670063 0.07014975 0.018125053 1.9178842e-038
-0.069497786 0.069418341 0.018888539 1.8717509e-038
-0.067428671 0.069415867 0.018955272 1.8533118e-038
-0.065248832 0.068684325 0.019718941 1.8440567e-038
-0.063291311 0.069410786 0.019088557 1.7796273e-038
-0.061223071 0.069408186 0.019155113 1.8809705e-038
-0.05915511 0.069405556 0.019221617 1.8810425e-038
-0.057087444 0.069402903 0.01928807 1.7980663e-038
-0.055144653 0.070129186 0.018657062 1.7243098e-038
-0.053207591 0.070855454 0.018025823 1.8717508e-038
-0.051016264 0.070123702 0.018789517 1.7519685e-038
-0.048819829 0.069391906 0.019553319 1.825725e-038
-0.047024474 0.070847094 0.01822402 1.8256531e-038
-0.04510216 0.071573257 0.017592158 1.8716789e-038
-0.043044738 0.071570396 0.017657997 1.7702637e-038
-0.040700585 0.070109464 0.019119782 1.0418826e-038
-0.038784619 0.070835561 0.018487614 1.9361803e-038
-0.03687435 0.071561635 0.017855223 1.834945e-038
-0.034666527 0.070829645 0.018619156 1.8441646e-038
-0.032607943 0.07082665 0.018684858 1.8257254e-038
-0.030549694 0.070823625 0.018750524 1.8257251e-038
-0.028811239 0.072278671 0.017419117 1.8257251e-038
-0.026921477 0.073004708 0.01678589 1.8072859e-038
-0.024872245 0.073001653 0.01685119 1.8072859e-038
-0.022823328 0.072998568 0.016916454 1.7888468e-038
-0.020604134 0.07226637 0.017680608 1.7611881e-038
-0.018379839 0.071534202 0.018444857 1.7796273e-038
-0.016326439 0.071531065 0.018510208 1.7980665e-038
-0.014094637 0.070798844 0.01927465 1.7979588e-038
-0.01222048 0.071524762 0.018640835 1.7888472e-038
-0.0099839121 0.070792511 0.0194054 1.7796276e-038
-0.007928988 0.070789337 0.019470742 1.8071784e-038
-0.0056848843 0.070057064 0.020235533 1.7980665e-038
-0.0038200188 0.070782945 0.01960136 1.7519686e-038
-0.0019608277 0.07150884 0.018967006 1.7427489e-038
0.00028780528 0.070776537 0.019731909 1.7427489e-038
0.0023413002 0.070773333 0.019797167 1.6966511e-038
0.0045974846 0.070041008 0.0205623 1.6321142e-038
0.0068588066 0.069308683 0.021327611 1.6228948e-038
0.0091252513 0.068576314 0.022093114 1.6413339e-038
0.010763615 0.07003136 0.02075823 1.6228948e-038
0.012604696 0.070757277 0.020123295 1.8165056e-038
0.014440162 0.071483195 0.019488178 1.6136751e-038
0.016708275 0.070750877 0.020253722 1.7796633e-038
0.018537827 0.071476817 0.019618426 1.7151621e-038
0.02081087 0.0707445 0.020384133 1.6296302e-038
0.022861831 0.070741341 0.020449359 1.3240519e-038
0.02491254 0.070738167 0.020514576 1.425104e-038
0.026963083 0.070735022 0.020579807 1.3328732e-038
0.029013343 0.070731886 0.020645056 1.4708792e-038
0.031063454 0.070728764 0.020710304 1.4616951e-038
0.033113353 0.070725657 0.020775575 1.4525833e-038
0.034919672 0.071451738 0.020139683 1.397698e-038
0.036720429 0.07217785 0.019503631 1.4068455e-038
0.038515612 0.072904035 0.018867401 1.379187e-038
0.040808219 0.072171792 0.019633973 1.39777e-038
0.043106038 0.071439609 0.020400701 1.2973253e-038
0.045152269 0.071436644 0.020466026 1.13202e-038
0.047198366 0.071433701 0.020531373 1.1692926e-038
0.049506549 0.070701584 0.021298533 1.2614162e-038
0.05129014 0.071427897 0.02066217 1.2338296e-038
0.05333586 0.071425036 0.020727612 1.2434443e-038
0.05565184 0.070693001 0.021495156 1.1977058e-038
0.057973091 0.069960989 0.022262892 1.1236623e-038
0.059748232 0.070687443 0.021626431 1.1512855e-038
0.061239563 0.072143152 0.020287529 1.2533111e-038
0.063563339 0.071411252 0.021055507 1.2162525e-038
0.065892443 0.070679381 0.021823689 1.13306e-038
0.068226896 0.069947556 0.022592109 1.1698307e-038
0.070277534 0.069944978 0.022658106 1.3173437e-038
0.072328217 0.069942459 0.022724161 1.3082686e-038
0.074378908 0.069939986 0.022790283 1.160111e-038
0.076132394 0.07066679 0.022153554 1.2598735e-038
0.078180432 0.070664421 0.02221971 1.3057914e-038
0.080531165 0.069932841 0.022989016 1.3426328e-038
0.082582034 0.069930568 0.023055404 1.3884785e-038
0.084632963 0.069928333 0.023121854 1.4160652e-038
0.086684018 0.069926172 0.023188392 1.3884784e-038
0.088421814 0.070653319 0.022551572 1.3976981e-038
0.090470351 0.070651263 0.022618162 1.452908e-038
0.093156643 0.069190755 0.024092073 1.3884795e-038
-0.12711845 0.059442006 0.02365328 4.4239259e-039
-0.1253338 0.066746473 0.016800646 1.1863691e-038
-0.12335832 0.068937004 0.014792453 1.4435088e-038
-0.12128601 0.068935767 0.014860928 1.4252137e-038
-0.11925434 0.069665045 0.014236832 1.4720675e-038
-0.11718506 0.069663718 0.014305069 1.4537366e-038
-0.11516186 0.070392892 0.013680561 1.3340263e-038
-0.11309564 0.070391461 0.01374856 1.361685e-038
-0.1110296 0.070389971 0.013816494 1.398528e-038
-0.10896375 0.070388436 0.013884353 1.2972924e-038
-0.10695487 0.071117423 0.013259104 1.740299e-038
-0.10495166 0.071846411 0.012633566 1.5192096e-038
-0.10289183 0.071844727 0.012701028 1.4269058e-038
-0.10089716 0.072573572 0.012075118 1.6388117e-038
-0.09884049 0.072571799 0.012142355 1.6295201e-038
-0.09671364 0.0718394 0.012903012 1.4354773e-038
-0.094654687 0.07183753 0.0129702 1.4721396e-038
-0.092368491 0.069643825 0.015118362 1.5920299e-038
-0.090301849 0.069641851 0.01518568 1.5735549e-038
-0.088154212 0.068909243 0.015946776 1.5827023e-038
-0.086169317 0.069637775 0.015320122 1.6932293e-038
-0.084103428 0.069635674 0.015387239 1.3610005e-038
-0.082216576 0.071094722 0.014066082 1.4065945e-038
-0.080064513 0.070361942 0.014827097 1.471059e-038
-0.077907279 0.069629118 0.015588216 1.4526907e-038
-0.075647347 0.06816563 0.017043829 1.406666e-038
-0.073777847 0.069624543 0.015721897 1.9256278e-038
-0.071713544 0.069622189 0.015788643 1.8711381e-038
-0.06964951 0.069619805 0.015855327 1.7699752e-038
-0.067477383 0.068886757 0.016616678 1.7237335e-038
-0.065411218 0.068884291 0.016683329 1.8068174e-038
-0.063345328 0.068881795 0.016749928 1.7424254e-038
-0.061396264 0.069609888 0.016121492 1.8622794e-038
-0.059333671 0.069607325 0.016187901 1.8715347e-038
-0.05739332 0.070335358 0.015559087 1.8621352e-038
-0.055334035 0.070332721 0.015625298 1.8162171e-038
-0.053402409 0.071060702 0.014996115 1.8347282e-038
-0.051346447 0.07105802 0.015062139 1.9083407e-038
-0.049158003 0.070324644 0.015823608 1.8990491e-038
-0.04709994 0.070321888 0.015889611 1.9912447e-038
-0.045180354 0.07104978 0.015259901 1.9729496e-038
-0.043125607 0.071046971 0.015325727 2.028195e-038
-0.040783957 0.069582805 0.01678321 1.0784724e-038
-0.038870718 0.070310615 0.016153188 1.9730219e-038
-0.036814198 0.070307732 0.01621897 1.8442006e-038
-0.03460627 0.069574147 0.016980819 1.8349094e-038
-0.032547649 0.069571212 0.017046612 1.844129e-038
-0.030646484 0.070298947 0.016416082 1.8165059e-038
-0.029070726 0.072488084 0.014392558 1.8441646e-038
-0.027023867 0.072485104 0.014457894 1.834945e-038
-0.02514255 0.07321281 0.013826652 1.8257251e-038
-0.022931073 0.072479099 0.014588458 1.8257251e-038
-0.020714501 0.071745366 0.015350404 1.8349447e-038
-0.01849279 0.071011573 0.016112546 1.807286e-038
-0.016265998 0.070277788 0.016874777 1.8165059e-038
-0.014034114 0.069543995 0.017637163 1.7887393e-038
-0.012160032 0.070271619 0.017005576 1.56747e-038
-0.01010751 0.070268512 0.017070934 1.6781768e-038
-0.0082421396 0.070996135 0.016439045 1.7427494e-038
-0.0060033421 0.070262283 0.017201597 1.7335295e-038
-0.0041439291 0.070989892 0.016569495 1.6782121e-038
-0.0019003202 0.070256017 0.017332176 1.6321142e-038
0.00015074416 0.07025288 0.017397448 1.7704076e-038
0.0022015409 0.070249736 0.017462697 1.6413337e-038
0.0042520398 0.0702466 0.017527936 1.6413337e-038
0.0065080263 0.069512695 0.018290993 1.6689924e-038
0.0085607283 0.069509551 0.018356306 1.6228946e-038
0.010613119 0.069506407 0.018421609 1.4201361e-038
0.012665286 0.069503263 0.018486906 1.6875034e-038
0.014717169 0.069500118 0.018552199 1.6045271e-038
0.016768815 0.069496989 0.018617488 1.6875755e-038
0.018598292 0.070224643 0.017984433 1.613819e-038
0.020646749 0.070221528 0.018049641 1.7330613e-038
0.02246769 0.070949212 0.017416339 1.1038266e-038
0.024743007 0.07021533 0.018180074 1.1040784e-038
0.026790807 0.070212245 0.0182453 2.2944457e-038
0.02883837 0.070209168 0.01831053 1.1314131e-038
0.030647662 0.070936918 0.017676922 1.1579553e-038
0.032451354 0.071664743 0.01704311 1.3515294e-038
0.034005981 0.073123351 0.015710142 1.379116e-038
0.035795853 0.073851183 0.015075979 1.3700404e-038
0.038077895 0.07311739 0.01584007 1.3607488e-038
0.040616717 0.0716528 0.017303653 1.3883355e-038
0.042911891 0.070918992 0.018068263 1.3699674e-038
0.044955414 0.070916086 0.018133573 1.4345039e-038
0.047258347 0.070182353 0.018898448 1.462235e-038
0.049304277 0.070179485 0.018963898 1.370076e-038
0.051350042 0.070176646 0.019029379 1.2328629e-038
0.05339573 0.070173845 0.019094901 1.3444696e-038
0.055441312 0.070171073 0.019160461 1.0205601e-038
0.057759926 0.069437474 0.01992603 1.250616e-038
0.05980802 0.069434762 0.019991755 1.3889094e-038
0.061299112 0.070893809 0.018657213 1.306076e-038
0.063060515 0.071622089 0.018022571 1.2508673e-038
0.065100394 0.071619496 0.018088166 1.4812148e-038
0.067140244 0.071616948 0.018153828 1.2784922e-038
0.069758564 0.070152633 0.019620566 1.4445879e-038
0.071803823 0.070150167 0.019686511 1.3702189e-038
0.07384903 0.070147738 0.019752506 1.3793662e-038
0.075002305 0.07233806 0.017716238 1.3885857e-038
0.07703951 0.072335728 0.017782092 1.3884785e-038
0.07877408 0.073064342 0.017147085 1.3884431e-038
0.081419446 0.071600318 0.01861502 1.3608917e-038
0.083767638 0.070867203 0.01938232 1.3239426e-038
0.085499763 0.071596026 0.018747397 1.2228155e-038
0.087226555 0.07232485 0.018112404 1.3608213e-038
0.089264274 0.072322838 0.018178692 1.3883e-038
0.092258707 0.070128113 0.020349473 1.4160307e-038
0.096877128 0.064278878 0.026028609 1.3425262e-038
-0.12711948 0.059625559 0.020601772 4.3317302e-039
-0.12537336 0.067678824 0.013080436 1.2324311e-038
-0.12344131 0.070606545 0.01038831 1.3700405e-038
-0.12137978 0.070605353 0.010456469 1.6931573e-038
-0.1193184 0.070604101 0.01052455 1.675259e-038
-0.1172139 0.069870554 0.011283046 1.7308642e-038
-0.11515015 0.069869205 0.011351079 1.6205895e-038
-0.11303784 0.069135591 0.01210966 1.6575756e-038
-0.11097171 0.069134131 0.012177634 1.5559811e-038
-0.10885162 0.068400413 0.012936337 1.6021505e-038
-0.10689691 0.069863304 0.011622498 1.5284306e-038
-0.10489369 0.070593975 0.010999151 1.4731132e-038
-0.10289611 0.071324557 0.010375605 1.5008431e-038
-0.10083912 0.071322873 0.010442976 1.509882e-038
-0.09871462 0.070588909 0.011201508 1.5834589e-038
-0.096584901 0.069854856 0.011960194 1.4354418e-038
-0.094449982 0.06912078 0.012718947 1.5735193e-038
-0.092309855 0.068386674 0.013477813 1.5734473e-038
-0.090321757 0.06911698 0.012853594 1.5919587e-038
-0.088258006 0.06911502 0.012920825 1.4628125e-038
-0.086362593 0.070577547 0.011604398 1.4995832e-038
-0.08430478 0.070575498 0.011671316 1.2044851e-038
-0.082336687 0.071305655 0.011046225 1.4252137e-038
-0.080189914 0.070571281 0.01180497 1.443508e-038
-0.07813286 0.070569105 0.011871697 1.4802772e-038
-0.075880848 0.069102332 0.013322841 1.4618751e-038
-0.073818922 0.069100082 0.013389627 1.7677415e-038
-0.071757264 0.069097787 0.013456359 1.4825113e-038
-0.069695882 0.069095463 0.013523032 1.6581517e-038
-0.067634799 0.069093086 0.013589634 1.5845394e-038
-0.06546282 0.068358406 0.014348836 1.4644334e-038
-0.063513495 0.069088235 0.013722681 1.5842877e-038
-0.061453257 0.069085769 0.01378913 1.5104955e-038
-0.059393331 0.069083259 0.013855515 1.5104955e-038
-0.0573337 0.069080718 0.013921854 1.3256002e-038
-0.05539909 0.069810435 0.013295046 1.4273394e-038
-0.053597637 0.07127247 0.011974804 1.5844319e-038
-0.051547043 0.07126984 0.012040721 1.4364149e-038
-0.049363907 0.070534885 0.012799939 1.5565213e-038
-0.047311205 0.070532203 0.012865857 1.2061059e-038
-0.045258809 0.070529491 0.012931723 1.0664439e-038
-0.043488678 0.071991369 0.011610322 1.0664082e-038
-0.041298639 0.071256302 0.012369628 9.5631361e-039
-0.039249882 0.071253516 0.012435274 2.0737173e-038
-0.037201453 0.071250707 0.012500884 1.779592e-038
-0.035001509 0.070515543 0.013260405 1.779592e-038
-0.032796461 0.06978032 0.014020102 1.7242746e-038
-0.030900761 0.070509821 0.013391601 1.6873964e-038
-0.029170692 0.071971595 0.012068704 1.7796276e-038
-0.027289122 0.072701022 0.011439729 1.7612245e-038
-0.02508264 0.071965754 0.012199338 1.770408e-038
-0.023207089 0.072695166 0.01157013 1.7427491e-038
-0.020825099 0.071227491 0.013024393 1.7980665e-038
-0.018605998 0.070492163 0.013784339 1.7519689e-038
-0.016205691 0.069024399 0.015239201 1.7427494e-038
-0.014331372 0.069753751 0.014609873 1.622895e-038
-0.01228122 0.069750726 0.014675257 1.5675421e-038
-0.010231366 0.069747701 0.014740624 1.6136399e-038
-0.0083687669 0.070477068 0.014110843 1.6966515e-038
-0.0061325668 0.069741607 0.014871284 1.6689929e-038
-0.0038913009 0.069006152 0.015631827 1.5767969e-038
-0.0018399272 0.06900309 0.015697205 1.6228948e-038
1.34086e-005 0.069732413 0.015067133 1.6965791e-038
0.0018610568 0.07046178 0.014436829 1.7058707e-038
0.0039061904 0.070458718 0.014501994 1.6689924e-038
0.0059510269 0.070455648 0.014567136 1.6966511e-038
0.0075785629 0.0719174 0.013240737 1.6413337e-038
0.0094062518 0.072646752 0.012609839 1.4753816e-038
0.011870056 0.071178861 0.014066587 1.5860164e-038
0.013911139 0.071175799 0.014131617 1.6321858e-038
0.015951999 0.071172744 0.014196641 1.6045274e-038
0.017992605 0.071169704 0.014261681 1.521515e-038
0.020032987 0.071166664 0.014326715 1.6501577e-038
0.022073101 0.071163632 0.014391752 9.1035985e-039
0.024113007 0.071160614 0.014456794 1.1677876e-038
0.025919916 0.071890056 0.013825305 1.7133616e-038
0.027956676 0.071887061 0.013890278 2.1661642e-038
0.029993288 0.071884081 0.013955262 2.0830802e-038
0.032270487 0.071148656 0.014717054 2.138001e-038
0.034309376 0.071145698 0.014782151 2.1565122e-038
0.036101826 0.071875244 0.014150307 2.3315031e-038
0.037888743 0.072604805 0.013518299 1.0480757e-038
0.039670032 0.073334426 0.01288609 1.2687331e-038
0.041954465 0.072599046 0.013648282 1.2134157e-038
0.044244185 0.071863726 0.014410631 1.3055389e-038
0.046539102 0.071128428 0.015173181 1.3516013e-038
0.048314478 0.071858108 0.014540946 1.1857936e-038
0.050084367 0.07258784 0.013908589 1.723084e-038
0.052384328 0.07185261 0.014671396 2.1752392e-038
0.054689549 0.071117401 0.015434418 2.110594e-038
0.057000097 0.070382223 0.016197653 1.6935185e-038
0.05876423 0.071112081 0.015565267 1.2505462e-038
0.060522884 0.07184197 0.014932742 1.5185619e-038
0.062557332 0.0718394 0.014998185 2.0260702e-038
0.064307854 0.07256937 0.014365492 1.6473488e-038
0.066339552 0.072566882 0.01443095 1.472177e-038
0.06866055 0.071831904 0.015194801 1.9426973e-038
0.071278945 0.070364431 0.016657319 1.4626316e-038
0.073318727 0.070362061 0.016723201 1.222635e-038
0.074466348 0.072557315 0.014693293 1.2687314e-038
0.076197937 0.073287606 0.01406028 1.3793309e-038
0.078529857 0.0725528 0.014824819 1.3610008e-038
0.081478089 0.070352994 0.016987301 1.3149746e-038
0.083518125 0.070350856 0.017053494 2.2026821e-038
0.084936522 0.071813852 0.015721662 1.9258081e-038
0.086971335 0.071811825 0.015787821 1.3242675e-038
0.089006267 0.071809843 0.015854055 1.4069556e-038
0.091679201 0.070342809 0.017318994 1.3609297e-038
0.095327944 0.066678122 0.020882616 1.3610734e-038
-0.12709109 0.059081748 0.018246472 4.5154012e-039
-0.12534842 0.067153186 0.010748845 1.2231762e-038
-0.12345452 0.070821404 0.0073772855 1.7300724e-038
-0.12136042 0.070086375 0.0081334058 2.3500511e-038
-0.11930168 0.07008516 0.0082014427 1.7887383e-038
-0.11715638 0.068616122 0.0096460078 1.7612237e-038
-0.11513862 0.069348708 0.0090256715 1.3462357e-038
-0.11307769 0.069347352 0.0090935901 1.7242378e-038
-0.11101691 0.069345936 0.009161436 1.5397745e-038
-0.1089021 0.068610549 0.0099178916 1.7241658e-038
-0.10695291 0.070076838 0.0086081969 1.3554909e-038
-0.10495512 0.070809148 0.0079869162 1.5398821e-038
-0.10290058 0.070807546 0.0080543132 1.3462713e-038
-0.10065092 0.068604216 0.010188668 1.3554907e-038
-0.098588653 0.068602517 0.010256195 1.4384668e-038
-0.096526615 0.068600781 0.010323658 1.6598085e-038
-0.094464794 0.068598993 0.010391051 1.4661256e-038
-0.092251264 0.067129381 0.01183708 1.4013367e-038
-0.090341866 0.068595283 0.010525637 1.4566541e-038
-0.088280767 0.06859336 0.010592833 1.7150538e-038
-0.08647228 0.070793137 0.0085910754 2.0008603e-038
-0.084332988 0.070057243 0.0093475878 2.2032592e-038
-0.08245717 0.071523003 0.0080348346 7.361615e-039
-0.080223419 0.07005313 0.0094811972 1.2597306e-038
-0.078263998 0.070784912 0.0088579338 1.4710226e-038
-0.0761149 0.070048854 0.009614557 1.4894617e-038
-0.074061051 0.070046648 0.0096811475 1.4250694e-038
-0.071904354 0.069310501 0.010437917 1.3883355e-038
-0.069848351 0.069308236 0.010504483 1.4067747e-038
-0.067901164 0.070039853 0.0098805819 1.4435451e-038
-0.065848432 0.070037507 0.0099469442 1.4434378e-038
-0.063682042 0.069301203 0.010703832 1.3973399e-038
-0.061743855 0.070032723 0.010079508 1.3236559e-038
-0.059572607 0.069296345 0.010836475 1.1857587e-038
-0.057640444 0.070027813 0.010211868 1.222601e-038
-0.055339579 0.068557382 0.011659876 1.3236201e-038
-0.053538259 0.070022762 0.010344009 1.4709529e-038
-0.051617842 0.070754156 0.0097189005 1.3417713e-038
-0.049570195 0.070751563 0.0097847711 1.4525138e-038
-0.047387246 0.070014983 0.010541873 1.4251786e-038
-0.045199163 0.069278389 0.011299111 1.4066674e-038
-0.043288093 0.070009664 0.010673549 1.434289e-038
-0.041670274 0.072208911 0.0086646546 1.3333429e-038
-0.039629612 0.072206199 0.00873012 2.1471132e-038
-0.037589259 0.072203457 0.0087955501 1.9176688e-038
-0.035245422 0.070732713 0.010244598 1.8256178e-038
-0.033200271 0.070729926 0.010310122 1.7703725e-038
-0.031155447 0.07072711 0.010375601 1.7243102e-038
-0.029110935 0.070724294 0.010441059 1.834945e-038
-0.027066719 0.070721447 0.010506478 1.8533841e-038
-0.025022814 0.070718586 0.010571866 1.8349447e-038
-0.022979222 0.070715711 0.010637214 1.7150904e-038
-0.021277579 0.07218086 0.0093176747 1.7150904e-038
-0.019413523 0.072911963 0.0086902967 1.7150904e-038
-0.017202754 0.072175048 0.0094478894 1.659773e-038
-0.014986875 0.071438059 0.010205667 1.7426415e-038
-0.012765915 0.070701107 0.010963547 1.7426415e-038
-0.010908472 0.071432173 0.010335895 1.6413342e-038
-0.0092437612 0.072897308 0.0090150824 1.6505537e-038
-0.0070209983 0.072160318 0.0097729834 1.7519686e-038
-0.0046006916 0.070689231 0.011224185 1.7150904e-038
-0.0021698824 0.069218181 0.012675673 1.6966513e-038
-0.00032201395 0.069949225 0.012047668 1.7335295e-038
0.0015201801 0.070680276 0.011419483 1.6966513e-038
0.0031534813 0.072145425 0.010097627 1.6413337e-038
0.0051875319 0.072142437 0.01016251 1.6136751e-038
0.0070127174 0.07287351 0.0095337778 1.6874316e-038
0.0090435212 0.072870523 0.0095985522 1.7704076e-038
0.011502091 0.071399368 0.011050954 1.8349446e-038
0.013537794 0.071396388 0.011115904 1.8165054e-038
0.015792623 0.070659339 0.011874806 1.7888468e-038
0.017608456 0.071390435 0.011245796 1.7980663e-038
0.019643385 0.07138747 0.01131074 1.9084127e-038
0.021678118 0.071384512 0.011375688 1.1216521e-038
0.023942776 0.070647478 0.012134946 1.3884785e-038
0.025746886 0.071378618 0.011505599 1.406738e-038
0.027780933 0.071375698 0.011570569 1.1597192e-038
0.029576553 0.072106928 0.010940945 2.1105585e-038
0.03184846 0.071369886 0.011700545 8.7312161e-039
0.033638284 0.072101161 0.011070769 1.1861902e-038
0.036161534 0.070630029 0.012525393 1.2229963e-038
0.037699286 0.072095461 0.011200667 2.1832345e-038
0.039729502 0.072092637 0.011265641 1.6499758e-038
0.041759569 0.072089836 0.011330637 2.0093593e-038
0.044303719 0.070618764 0.012786027 1.4371361e-038
0.046598695 0.069881864 0.013546499 1.9344879e-038
0.048373945 0.070613265 0.012916501 2.3495117e-038
0.0501437 0.071344689 0.01228635 2.0737526e-038
0.052175831 0.071342006 0.012351573 2.092516e-038
0.054207839 0.071339361 0.012416839 1.6408653e-038
0.056239773 0.071336746 0.012482136 1.3455873e-038
0.058271606 0.071334153 0.012547463 1.5481297e-038
0.060303386 0.07133159 0.012612841 1.2161534e-038
0.062335126 0.071329072 0.012678262 2.0832964e-038
0.063798755 0.072794959 0.011351621 7.1797278e-039
0.065538287 0.07352668 0.010720844 1.6579722e-038
0.067851238 0.072790116 0.011482345 2.2193216e-038
0.070461698 0.071319371 0.012940414 1.2695262e-038
0.07278806 0.070582867 0.01370246 2.3502312e-038
0.074227445 0.072048977 0.012375301 1.9080898e-038
0.07595624 0.072780922 0.011744438 1.8986905e-038
0.078285441 0.072044551 0.012506752 1.3622647e-038
0.080925599 0.070573986 0.013966068 2.0176083e-038
0.083268367 0.069837697 0.014728943 1.4470028e-038
0.084372908 0.072038263 0.012704416 2.055746e-038
0.086402275 0.072036266 0.012770446 1.1980743e-038
0.088115409 0.072768524 0.012139468 1.0498773e-038
0.090780355 0.071298204 0.013599932 9.7557937e-039
0.093777843 0.069093764 0.015758023 1.2508346e-038
-0.12709272 0.059276544 0.015209638 4.3317316e-039
-0.12535624 0.067366198 0.0077356049 1.1771864e-038
-0.12346806 0.071042754 0.0043746452 1.4347944e-038
-0.12141725 0.071041629 0.0044425265 1.9085926e-038
-0.1193666 0.071040437 0.0045103282 1.5214794e-038
-0.11718579 0.068832614 0.0066364822 1.7057987e-038
-0.11508115 0.068095818 0.007390637 1.3463077e-038
-0.11302012 0.068094477 0.0074585956 1.6044555e-038
-0.11101088 0.06882862 0.0068400959 1.4016251e-038
-0.10900725 0.069562718 0.0062213475 1.7427489e-038
-0.10700927 0.070296772 0.0056023551 1.0974151e-038
-0.10489741 0.069559731 0.006356441 1.4753452e-038
-0.10278033 0.068822637 0.0071106292 1.3186126e-038
-0.10046247 0.065878853 0.0099254996 1.2725868e-038
-0.098530509 0.067348264 0.0086194016 1.2449281e-038
-0.09660963 0.068817675 0.0073128412 1.6228582e-038
-0.094479837 0.068080395 0.0080672242 1.37393e-038
-0.092268802 0.066607483 0.0095089497 1.2724428e-038
-0.090283431 0.067341194 0.00888908 1.3186126e-038
-0.088385224 0.068810456 0.0075815525 1.6504093e-038
-0.08658234 0.071015239 0.005586152 1.9087011e-038
-0.084448338 0.070277698 0.0063404376 1.9545825e-038
-0.08239878 0.070275716 0.0064071584 9.3009546e-039
-0.080257148 0.069538139 0.007161547 1.2137768e-038
-0.078300469 0.070271626 0.0065404158 1.4617674e-038
-0.076349482 0.071005136 0.0059190243 1.4617674e-038
-0.074303716 0.071002997 0.0059854183 1.4434725e-038
-0.072051831 0.069529645 0.0074279495 1.6649224e-038
-0.069895267 0.068791866 0.0081825815 1.4527284e-038
-0.067950837 0.069525182 0.0075608175 1.4525846e-038
-0.066012107 0.070258483 0.0069388272 1.4341099e-038
-0.06396503 0.070256174 0.0070050419 1.4895351e-038
-0.061918247 0.070253819 0.0070711914 1.8319196e-038
-0.059871759 0.070251442 0.0071372981 1.9891565e-038
-0.057825584 0.070249036 0.0072033568 1.9063245e-038
-0.055529941 0.068775408 0.0086469157 2.0526495e-038
-0.053478934 0.068772942 0.0087130517 1.3418791e-038
-0.051688861 0.07024163 0.0074012214 1.4155635e-038
-0.049776915 0.070974752 0.0067779948 2.0340663e-038
-0.047734961 0.070972204 0.0068437243 1.8039739e-038
-0.045554888 0.070233971 0.0075986614 1.3608578e-038
-0.043651983 0.070967034 0.0069750505 1.3975199e-038
-0.041754805 0.071700014 0.0063512498 1.2870293e-038
-0.039863359 0.072432987 0.0057272399 1.9912447e-038
-0.037828367 0.072430328 0.0057925852 1.8716788e-038
-0.035489768 0.070956387 0.0072371899 1.8348371e-038
-0.033450007 0.070953667 0.0073026214 1.8164703e-038
-0.031410553 0.07095094 0.0073680314 1.8441646e-038
-0.029531488 0.071683824 0.0067434763 1.8257254e-038
-0.027495362 0.071681052 0.0068087289 1.8626037e-038
-0.025294086 0.070942625 0.0075640222 1.8441643e-038
-0.023255873 0.070939824 0.0076292893 1.8441643e-038
-0.021559758 0.072408311 0.0063140173 1.8533837e-038
-0.019527575 0.072405487 0.0063790507 1.8626034e-038
-0.0173194 0.071666986 0.0071344916 1.8441643e-038
-0.014927145 0.070192754 0.0085806306 1.8533118e-038
-0.012706087 0.069454223 0.0093364492 1.8624958e-038
-0.01084872 0.070187002 0.0087110437 1.8441646e-038
-0.0091841426 0.071655512 0.0073946225 1.8533838e-038
-0.0073408782 0.072388291 0.0067687375 1.871823e-038
-0.0051182979 0.071649715 0.0075245569 1.8165056e-038
-0.0028906395 0.070911124 0.008280538 1.7796273e-038
-0.00065785833 0.070172474 0.0090367058 1.6966513e-038
0.00097827287 0.071640991 0.0077193417 1.6782121e-038
0.0030099074 0.071638077 0.0077842451 1.7335295e-038
0.0050412593 0.071635157 0.0078491317 1.807286e-038
0.0068636588 0.072367951 0.0072225519 1.7704078e-038
0.0088917641 0.072365038 0.0072873356 1.7611882e-038
0.011133706 0.07162641 0.0080437474 1.8165054e-038
0.013164 0.071623504 0.0081086159 1.7980663e-038
0.015413523 0.070884883 0.0088652913 1.7980665e-038
0.017001664 0.07235343 0.0075464384 1.7888469e-038
0.019253392 0.071614809 0.0083031952 1.9452912e-038
0.021282716 0.071611926 0.0083680535 1.0482213e-038
0.023542022 0.07087332 0.0091250818 1.3883723e-038
0.025573594 0.070870452 0.0091900425 1.4250697e-038
0.027604945 0.070867598 0.0092550106 1.3516013e-038
0.029397763 0.071600497 0.0086275758 1.8331791e-038
0.031425983 0.071597673 0.008692476 2.3495109e-038
0.033697784 0.070859112 0.0094499821 1.0664436e-038
0.035974748 0.070120506 0.010207704 1.3148672e-038
0.037758701 0.070853531 0.0095800301 1.2042688e-038
0.039285284 0.072322302 0.0082593895 1.981736e-038
0.041564438 0.071583793 0.0090172198 1.0778957e-038
0.043591641 0.071581081 0.0090822298 1.1695516e-038
0.045618679 0.071578391 0.0091472687 1.094535e-038
0.047383059 0.072311498 0.008519141 1.1125421e-038
0.049672425 0.071573079 0.0092774238 9.009961e-039
0.051699132 0.071570463 0.0093425512 1.1696593e-038
0.053725701 0.071567871 0.009407701 1.9541505e-038
0.05547886 0.072301112 0.0087793656 6.3553692e-039
0.058054619 0.070826992 0.010231752 1.1964183e-038
0.059804946 0.071560286 0.0096033914 9.5595362e-039
0.061831214 0.071557827 0.009668706 2.2668596e-038
0.063005179 0.073762834 0.0076524196 8.4575089e-039
0.0647365 0.074496299 0.0070235459 1.0294942e-038
0.067041397 0.073758103 0.0077827461 9.7424869e-039
0.069643825 0.072284162 0.0092362696 1.1403449e-038
0.071667299 0.07228189 0.0093017314 2.0003208e-038
0.073690794 0.072279654 0.0093672462 1.5485989e-038
0.075714268 0.072277471 0.0094328243 1.6587667e-038
0.078343734 0.070803665 0.010887445 1.4277027e-038
0.080984011 0.069329858 0.012342518 9.5768338e-039
0.083018437 0.069327794 0.012408623 6.9078283e-039
0.084119931 0.071533337 0.010390496 1.6315381e-038
0.086460248 0.070795543 0.011151329 1.7975979e-038
0.087856814 0.07226532 0.0098276045 1.9263478e-038
0.090519138 0.070791781 0.011283686 2.2672194e-038
0.093192324 0.06931825 0.012740227 1.1495279e-038
-0.12703484 0.058003485 0.013548267 3.0409928e-039
-0.12529911 0.066111349 0.0060980134 1.1036461e-038
-0.12341124 0.06979619 0.002747871 1.3516027e-038
-0.12136036 0.069795094 0.0028157923 2.0926599e-038
-0.11930962 0.06979394 0.0028836378 1.6596288e-038
-0.11721554 0.06905552 0.0036354247 1.7241659e-038
-0.11516241 0.069054276 0.0037032315 1.3370883e-038
-0.11310947 0.069052979 0.0037709686 1.5306991e-038
-0.11110839 0.069788858 0.0031543646 1.3924057e-038
-0.10905854 0.069787472 0.0032218781 1.7796273e-038
-0.10700887 0.069786042 0.0032893289 1.0420623e-038
-0.10489959 0.069047347 0.0040412615 1.6321143e-038
-0.10284762 0.069045819 0.0041086636 1.254184e-038
-0.10060009 0.066832706 0.0062300609 1.3002455e-038
-0.098676354 0.068305463 0.0049280627 1.0052555e-038
-0.096622311 0.068303809 0.0049953712 1.5676128e-038
-0.094568506 0.068302117 0.0050626164 1.2357086e-038
-0.09228655 0.066088744 0.0071849423 1.318649e-038
-0.090303913 0.066824205 0.0065671685 1.3647469e-038
-0.088490084 0.069033973 0.0045787487 1.6505533e-038
-0.086608507 0.070506558 0.003275001 1.8626033e-038
-0.084564067 0.070504665 0.0033416755 1.9362513e-038
-0.082519881 0.070502736 0.0034082893 1.2254087e-038
-0.080383554 0.069763556 0.0041604014 1.4342178e-038
-0.078432299 0.070498757 0.0035413294 1.4618041e-038
-0.076388925 0.070496708 0.0036077632 1.4434728e-038
-0.074446358 0.071231857 0.0029883112 1.462092e-038
-0.07230296 0.070492521 0.0037404725 1.5735908e-038
-0.070260413 0.070490368 0.0038067403 1.3789361e-038
-0.068218134 0.070488192 0.0038729613 1.4342178e-038
-0.066287562 0.071223199 0.0032529328 1.3053963e-038
-0.064134464 0.070483722 0.0040052286 1.905172e-038
-0.062209874 0.071218677 0.0033849264 1.6298458e-038
-0.060171481 0.071216367 0.0034508447 1.6951387e-038
-0.058133397 0.07121402 0.0035167113 1.4833047e-038
-0.055720702 0.068999879 0.0056424513 1.6030868e-038
-0.053675067 0.068997473 0.005708484 1.1962741e-038
-0.051890533 0.070469573 0.0044008316 1.5092352e-038
-0.049850952 0.070467114 0.0044665961 1.5466895e-038
-0.047811661 0.070464633 0.0045323214 1.9905246e-038
-0.045634188 0.069724873 0.0052850647 1.7413443e-038
-0.043734014 0.070459589 0.0046636388 1.323872e-038
-0.041839596 0.071194299 0.0040419926 1.2777741e-038
-0.039950892 0.071928993 0.0034201341 2.0833321e-038
-0.037918571 0.0719264 0.0034854743 1.9178842e-038
-0.035582505 0.070449218 0.0049257665 1.9086292e-038
-0.033545405 0.070446581 0.0049912087 1.9271406e-038
-0.031666078 0.0711812 0.0043689362 1.9270327e-038
-0.029792465 0.071915813 0.003746463 1.9087012e-038
-0.027598878 0.071175829 0.004499468 1.9087012e-038
-0.025731301 0.071910404 0.0038767499 1.8902619e-038
-0.023532931 0.071170382 0.0046298644 1.7335294e-038
-0.021671383 0.071904942 0.0040069129 1.7243098e-038
-0.019815553 0.072639495 0.0033837636 1.4661622e-038
-0.017612699 0.071899422 0.0041369665 1.6320423e-038
-0.015225663 0.070422009 0.0055786767 1.4753097e-038
-0.013191694 0.070419215 0.0056438078 1.6689205e-038
-0.01134249 0.07115373 0.0050203861 1.7057988e-038
-0.0096861515 0.07262557 0.0037081416 1.3370883e-038
-0.0078510782 0.07336013 0.0030841972 1.4569426e-038
-0.0056365174 0.072619945 0.0038377477 1.5860168e-038
-0.0034168314 0.071879774 0.0045914007 1.3924057e-038
-0.0011920667 0.071139611 0.0053452221 1.5491385e-038
0.00083715213 0.071136773 0.0054101367 1.1895756e-038
0.0028660584 0.071133927 0.0054750373 1.4385038e-038
0.0048947111 0.071131088 0.0055399323 1.5767969e-038
0.0069230963 0.071128242 0.0056048152 1.6044556e-038
0.0091626653 0.070388034 0.0063590887 1.7888469e-038
0.011407388 0.069647834 0.0071135364 1.8441643e-038
0.013440359 0.069644995 0.0071785813 1.871823e-038
0.015473078 0.069642149 0.0072436109 1.8440922e-038
0.017283324 0.070376694 0.0066188979 1.8625314e-038
0.019312868 0.07037387 0.0066838497 1.9269241e-038
0.021342145 0.070371047 0.0067487922 1.0116309e-038
0.023371199 0.070368238 0.0068137427 1.333127e-038
0.025400059 0.070365444 0.0068787085 1.4065945e-038
0.027192965 0.071100049 0.0062534944 1.4250694e-038
0.02945712 0.070359878 0.007008648 1.3237265e-038
0.030762006 0.072569326 0.0050025852 2.2569546e-038
0.033025775 0.071829177 0.0057577593 2.2300163e-038
0.035048209 0.071826458 0.0058226008 1.241831e-038
0.037319645 0.07108634 0.0065780641 1.3332346e-038
0.039344437 0.07108365 0.0066430261 1.2409669e-038
0.041369047 0.071080975 0.0067080054 2.2660665e-038
0.043393519 0.07107833 0.0067730127 1.7961928e-038
0.04541783 0.0710757 0.0068380409 1.1403438e-038
0.047704674 0.070335664 0.0075941333 1.3514574e-038
0.050262101 0.068858176 0.0090415981 1.4250697e-038
0.052026119 0.069593087 0.0084157092 1.2778448e-038
0.054055341 0.069590554 0.0084810304 2.0825749e-038
0.055264223 0.071800373 0.0064722174 1.4927392e-038
0.057837401 0.070323005 0.007920282 1.1859019e-038
0.059584916 0.07105802 0.00729407 1.250151e-038
0.061326958 0.071793064 0.0066677099 2.3500511e-038
0.063063562 0.072528154 0.0060412223 2.2489244e-038
0.065081634 0.072525822 0.0061064307 2.2488165e-038
0.067099661 0.072523519 0.0061716717 2.3040619e-038
0.069409944 0.071783803 0.0069289664 2.2025026e-038
0.071430646 0.071781576 0.006994402 1.4468229e-038
0.073451392 0.0717794 0.007059895 1.299706e-038
0.075472154 0.071777254 0.0071254363 1.2438138e-038
0.07779596 0.07103768 0.007883383 1.446141e-038
0.080125175 0.07029815 0.0086415634 1.15857e-038
