# .PCD v0.7 - Point Cloud Data file format
VERSION 0.7
FIELDS x y z rgb
SIZE 4 4 4 4
TYPE F F F F
COUNT 1 1 1 1
WIDTH 953
HEIGHT 1
VIEWPOINT 0 0 0 1 0 0 0
POINTS 953
DATA ascii
0.0453729 0.075762965 0.14625984 1.2131653e-038
0.047856618 0.075098649 0.14712153 9.3758792e-039
0.049625695 0.076414727 0.14560948 2.2673281e-038
0.051626619 0.077070743 0.14488864 1.0204551e-038
0.054112941 0.076406613 0.14575066 1.5176275e-038
0.05710087 0.074422292 0.14819613 2.248925e-038
0.059352543 0.074418396 0.14826718 7.8197051e-039
0.061604224 0.074414589 0.14833836 1.2806186e-038
0.063343525 0.075731106 0.14682598 1.9081251e-038
0.066107638 0.074407212 0.14848104 9.9326417e-039
0.069405735 0.071763054 0.15172052 1.2233536e-038
-0.13703637 0.072068244 0.14184609 6.446469e-039
-0.13474652 0.071405292 0.1427031 1.1126128e-038
-0.13257733 0.074710451 0.1388665 1.5291145e-038
-0.13029312 0.074047357 0.13972302 1.9079086e-038
-0.12808283 0.075368285 0.13823226 1.3965479e-038
-0.12579609 0.074704938 0.13908863 1.6085612e-038
-0.1235359 0.074702926 0.13916245 1.6374821e-038
-0.12127584 0.074700825 0.13923612 1.914788e-038
-0.11894133 0.073375903 0.14087528 1.1952302e-038
-0.11667609 0.073373616 0.14094891 1.2501156e-038
-0.11445369 0.07403262 0.14023945 2.1003675e-038
-0.11228228 0.075352952 0.13874657 2.0364785e-038
-0.10992933 0.074027613 0.14038594 1.1119662e-038
-0.10761654 0.07336358 0.14124219 1.3510988e-038
-0.10529847 0.072699502 0.14209856 2.2305213e-038
-0.10314394 0.074019462 0.14060475 1.0673804e-038
-0.10094143 0.074677974 0.13989398 1.1855431e-038
-0.098682821 0.074675024 0.13996649 2.3497642e-038
-0.096424408 0.074671999 0.14003892 1.0400102e-038
-0.094099045 0.074007466 0.14089498 1.9442474e-038
-0.091838263 0.074004278 0.14096728 2.0637417e-038
-0.08957766 0.074000999 0.14103943 9.6506556e-039
-0.087166771 0.072674818 0.14267953 1.5923198e-038
-0.084979072 0.073332831 0.14196759 2.2303057e-038
-0.082716338 0.073329337 0.14203957 1.1033226e-038
-0.080703914 0.075310104 0.13975856 1.0848479e-038
-0.078535788 0.075967908 0.1390457 2.3498717e-038
-0.076284498 0.075964235 0.13911703 1.3431398e-038
-0.073850401 0.074637555 0.14075737 1.5734484e-038
-0.071594112 0.074633747 0.1408287 2.2302688e-038
-0.069241107 0.073968425 0.14168464 1.3711209e-038
-0.066982545 0.073964447 0.14175583 1.0673077e-038
-0.064826488 0.074621916 0.14104211 2.2764386e-038
-0.062676094 0.075279355 0.14032806 1.6774539e-038
-0.060531344 0.075936712 0.13961384 1.6400326e-038
-0.058171306 0.07527107 0.1404696 1.3450049e-038
-0.055806085 0.074605338 0.14132552 1.3079106e-038
-0.053783279 0.075924061 0.13982554 1.2532455e-038
-0.051297218 0.074596725 0.14146675 2.074148e-038
-0.049285699 0.075915396 0.13996632 1.3634798e-038
-0.046789277 0.074587956 0.14160778 1.7781428e-038
-0.044662341 0.07524503 0.14089245 1.2981129e-038
-0.042282246 0.074578986 0.14174847 1.6207251e-038
-0.040293273 0.075897515 0.14024706 1.3900557e-038
-0.038315345 0.077215999 0.13874532 1.3346311e-038
-0.036073443 0.077211425 0.13881518 1.5746995e-038
-0.033551354 0.075883724 0.14045706 1.3256991e-038
-0.031018665 0.074555941 0.14209928 1.4827202e-038
-0.028766643 0.074551232 0.14216928 1.7228244e-038
-0.026514845 0.074546501 0.14223926 1.8334592e-038
-0.024414305 0.075203322 0.14152274 1.9992314e-038
-0.022165649 0.075198554 0.14159255 1.7410116e-038
-0.019917227 0.075193755 0.14166233 1.5474362e-038
-0.01766903 0.07518895 0.14173208 1.7503741e-038
-0.01558289 0.075845711 0.14101508 1.9164325e-038
-0.01350235 0.07650245 0.14029786 1.7875029e-038
-0.010758484 0.07451278 0.14272806 1.5012678e-038
-0.0086783757 0.075169563 0.14201082 1.3727375e-038
-0.0066038966 0.075826287 0.14129336 2.1019869e-038
-0.0043596579 0.075821429 0.14136292 1.1517597e-038
-0.0021156427 0.075816557 0.14143243 1.2160079e-038
0.00030893181 0.075150065 0.14228927 2.2765837e-038
0.0021883757 0.076468438 0.14078407 1.6389225e-038
0.004242985 0.077125207 0.14006603 1.6943475e-038
0.0066696876 0.076458745 0.14092296 2.3401487e-038
0.0091015883 0.07579226 0.14178003 1.8878144e-038
0.011732977 0.07446409 0.14342512 2.0457346e-038
0.013587203 0.075782619 0.14191917 2.2759712e-038
0.015630146 0.0764395 0.14120086 1.6098586e-038
0.018072173 0.075773068 0.14205836 1.6178541e-038
0.020314425 0.075768322 0.14212801 1.4173638e-038
0.022971978 0.074440189 0.14377397 2.3315765e-038
0.024798481 0.075758897 0.14226733 2.2935461e-038
0.027040299 0.07575424 0.14233705 1.5721162e-038
0.029281979 0.075749606 0.14240682 1.7094007e-038
0.031305034 0.076406725 0.14168814 1.8208643e-038
0.033765011 0.075740486 0.14254652 2.2301613e-038
0.035558544 0.077059403 0.1410391 2.2389489e-038
0.038020991 0.076393239 0.14189766 1.767095e-038
0.039800845 0.077712283 0.14038996 1.6451883e-038
0.042497851 0.076384492 0.14203763 1.5169773e-038
0.044970885 0.075718455 0.14289671 2.0905731e-038
0.046974391 0.076375954 0.14217786 2.3495846e-038
0.048732407 0.077695243 0.14066975 2.0824332e-038
0.050965145 0.077691153 0.14073992 1.2224215e-038
0.053688873 0.076363616 0.14238884 1.2592997e-038
0.056671496 0.074374303 0.1448276 9.0186056e-039
0.059168559 0.073708639 0.14568798 1.8794223e-038
0.061417431 0.073704779 0.14575899 1.6956427e-038
0.063410006 0.074362785 0.14504044 2.0461665e-038
0.065656215 0.074359104 0.14511161 2.0902104e-038
0.068425737 0.073031932 0.14676253 1.3337007e-038
-0.13705145 0.0740088 0.13615268 6.6304917e-039
-0.13477497 0.073344223 0.13700713 1.1864047e-038
-0.13255633 0.074668609 0.13552113 8.9285567e-039
-0.13025352 0.073340833 0.13715561 2.1106306e-038
-0.12799294 0.073339008 0.13722967 1.2679061e-038
-0.1257617 0.074000143 0.1365232 1.1854345e-038
-0.12347215 0.073335096 0.13737744 2.3490438e-038
-0.12128122 0.074659035 0.13588995 1.0951111e-038
-0.11895184 0.073330797 0.13752471 2.2112532e-038
-0.11669189 0.073328517 0.13759816 1.4160677e-038
-0.11443205 0.073326163 0.1376715 1.2981214e-038
-0.11230887 0.075312808 0.13540193 2.1936431e-038
-0.11000926 0.07464724 0.13625576 1.1861547e-038
-0.10770439 0.073981605 0.13710967 8.9217268e-039
-0.10528699 0.071989782 0.13952604 2.1659484e-038
-0.10307883 0.07265003 0.13881773 2.0092158e-038
-0.10087627 0.073310181 0.13810907 1.0026278e-038
-0.098679312 0.073970318 0.13740015 2.3500879e-038
-0.096423469 0.073967271 0.13747245 1.0856759e-038
-0.094167799 0.073964171 0.13754469 1.4360193e-038
-0.091912314 0.073961005 0.13761683 2.2580361e-038
-0.089729629 0.074620783 0.13690704 1.4074242e-038
-0.087401897 0.073954426 0.13776076 9.6553318e-039
-0.085068941 0.073287927 0.13861459 1.5476257e-038
-0.082730778 0.072621375 0.13946842 2.1007995e-038
-0.080721177 0.074607067 0.13719378 1.1404535e-038
-0.078728057 0.076592684 0.13491856 2.2760435e-038
-0.076484777 0.076589026 0.13498963 1.259263e-038
-0.07396698 0.074596033 0.13740778 1.4521893e-038
-0.071621701 0.073929146 0.13826142 1.3357543e-038
-0.069368228 0.073925272 0.13833256 1.953573e-038
-0.067214668 0.074584439 0.137621 1.2431273e-038
-0.065169156 0.075906649 0.1361264 2.2395958e-038
-0.062924445 0.075902626 0.13619708 1.0678798e-038
-0.060572155 0.075235419 0.13705052 1.1788378e-038
-0.058214664 0.07456813 0.13790405 1.7415919e-038
-0.055965222 0.074563928 0.13797463 1.8153505e-038
-0.053947899 0.075885937 0.13647884 2.0093224e-038
-0.051585674 0.075218514 0.13733235 1.8246424e-038
-0.049460977 0.075877279 0.13661927 1.5750243e-038
-0.046969753 0.074546605 0.13825624 1.4547366e-038
-0.044721469 0.074542165 0.13832647 1.6296923e-038
-0.042473406 0.074537672 0.13839662 1.9161111e-038
-0.040489934 0.075859472 0.1368994 1.9162908e-038
-0.038517535 0.077181265 0.13540173 1.8515382e-038
-0.036418565 0.077839874 0.13468756 1.68537e-038
-0.033904359 0.076508865 0.13632496 1.5748072e-038
-0.031522587 0.075841054 0.13717861 1.6027536e-038
-0.029427025 0.076499552 0.13646421 1.5659119e-038
-0.027040292 0.075831652 0.13731793 1.8335312e-038
-0.024950594 0.076490112 0.13660325 2.0086307e-038
-0.022405105 0.075158954 0.1382414 1.805836e-038
-0.020162061 0.075154148 0.138311 1.6025733e-038
-0.018078454 0.075812563 0.13759609 1.7779608e-038
-0.01583855 0.07580775 0.13766554 1.870299e-038
-0.013763491 0.076466158 0.1369503 1.8243091e-038
-0.011192083 0.075134851 0.13858913 1.2521967e-038
-0.0091201346 0.075793236 0.13787378 1.4278749e-038
-0.0068811085 0.075788379 0.13794315 1.5022465e-038
-0.0046422756 0.075783506 0.1380125 1.1421433e-038
-0.0025817808 0.076441906 0.13729678 1.3358992e-038
-0.00016523572 0.075773776 0.13815121 1.3452276e-038
0.002073016 0.075768918 0.13822056 1.5105679e-038
0.0041248123 0.076427341 0.13750456 1.4611936e-038
0.0067377905 0.075095929 0.13914466 1.4061655e-038
0.0091697648 0.074427791 0.1399996 1.3232967e-038
0.01160695 0.073759675 0.14085473 1.3140774e-038
0.013458321 0.07508143 0.13935301 1.1488447e-038
0.015298713 0.076403223 0.13785094 1.2044142e-038
0.017735407 0.075735167 0.13870615 1.3974487e-038
0.019972222 0.075730413 0.1387756 1.3969446e-038
0.022208862 0.075725675 0.13884503 1.2863099e-038
0.024234883 0.076384306 0.13812846 1.3599942e-038
0.026468555 0.076379634 0.13819788 1.4703769e-038
0.028702106 0.076375008 0.13826738 1.5808683e-038
0.030716894 0.07703381 0.13755055 1.25008e-038
0.033168811 0.076365881 0.13840652 1.2968272e-038
0.035177987 0.07702475 0.13768958 1.203623e-038
0.037635084 0.076356888 0.13854581 1.5161499e-038
0.039638665 0.077015884 0.13782884 1.6636263e-038
0.042100955 0.076348104 0.13868538 1.6267849e-038
0.044333793 0.076343775 0.13875523 1.3048579e-038
0.046329059 0.07700295 0.1380382 1.2046315e-038
0.04807872 0.078325525 0.13653409 1.5925003e-038
0.050546143 0.077658005 0.13739105 1.3146171e-038
0.053264532 0.076327123 0.13903549 1.7481523e-038
0.056241892 0.0743329 0.14146759 1.2780267e-038
0.058482535 0.074328944 0.1415382 1.370222e-038
0.0607232 0.074325085 0.14160892 1.4795607e-038
0.062707469 0.074984692 0.14089219 1.5897989e-038
0.064945459 0.074980974 0.14096303 1.7004688e-038
0.06770692 0.073650502 0.14260939 1.6638064e-038
-0.13698868 0.072642364 0.13436949 7.2765814e-039
-0.13476725 0.073970087 0.13288805 1.1034641e-038
-0.13253561 0.074633092 0.13218415 1.5351285e-038
-0.13021405 0.072637454 0.13459218 1.8127954e-038
-0.12795606 0.072635636 0.13466617 1.9986992e-038
-0.12575676 0.073963016 0.13318355 1.7864333e-038
-0.12350442 0.073961005 0.13325709 1.8490978e-038
-0.12132162 0.075288236 0.13177373 1.507542e-038
-0.11896266 0.073292091 0.13418239 1.8955556e-038
-0.11670798 0.073289827 0.13425568 1.803792e-038
-0.11445344 0.073287487 0.13432886 1.6654989e-038
-0.11229019 0.074614376 0.13284437 1.6655353e-038
-0.11008964 0.075276509 0.13213827 1.6279369e-038
-0.1078437 0.075273901 0.13221082 1.6089579e-038
-0.10554419 0.074606553 0.13306229 1.7661946e-038
-0.10329583 0.074603796 0.13313472 1.7199888e-038
-0.10104764 0.07460095 0.13320704 1.7292443e-038
-0.098799624 0.074598014 0.13327923 1.6002782e-038
-0.096487239 0.073930308 0.1341307 1.6918256e-038
-0.094236858 0.073927231 0.13420278 1.7196279e-038
-0.092056647 0.074588746 0.13349518 1.6459435e-038
-0.089809358 0.074585527 0.13356698 1.6272522e-038
-0.087562263 0.074582189 0.13363862 1.6634834e-038
-0.085159145 0.073249415 0.13526984 1.5621402e-038
-0.082907006 0.073245957 0.1353415 1.7377805e-038
-0.080822133 0.074571848 0.13385305 1.9683053e-038
-0.078748316 0.075897723 0.13236411 1.4334969e-038
-0.076507643 0.075894065 0.13243513 1.5444177e-038
-0.074083857 0.074560866 0.13406658 1.6655304e-038
-0.071743824 0.073892333 0.1349179 1.6948769e-038
-0.069398589 0.07322374 0.13576931 1.5566913e-038
-0.06714794 0.073219828 0.13584031 1.5105225e-038
-0.06510248 0.074545339 0.13435003 1.5381091e-038
-0.062962882 0.075206056 0.13364002 1.2611269e-038
-0.060613133 0.074537218 0.13449125 1.3530359e-038
-0.058368776 0.07453309 0.13456178 1.3160502e-038
-0.056237984 0.075193651 0.13385125 1.4823622e-038
-0.054344907 0.077183768 0.13157842 1.4360483e-038
-0.051993344 0.076514728 0.13242945 1.4266835e-038
-0.049636606 0.075845614 0.13328058 1.6019264e-038
-0.047274675 0.075176395 0.13413183 1.749438e-038
-0.045034453 0.075171977 0.13420182 1.6388399e-038
-0.042794447 0.075167522 0.13427176 1.574447e-038
-0.040686931 0.075827852 0.13356006 1.629836e-038
-0.038450092 0.075823307 0.13362975 1.4084583e-038
-0.036351182 0.076483548 0.13291773 1.6945524e-038
-0.033977125 0.07581412 0.13376904 1.870047e-038
-0.031597905 0.075144611 0.13462049 1.8887031e-038
-0.029359303 0.07513994 0.13469008 1.8978882e-038
-0.027120939 0.075135231 0.13475965 1.7324394e-038
-0.024882797 0.075130515 0.13482918 1.7784294e-038
-0.022490999 0.074460909 0.13568082 1.7687057e-038
-0.020407209 0.075120971 0.13496806 1.6027533e-038
-0.018169764 0.075116187 0.13503748 1.7226079e-038
-0.01593253 0.075111382 0.13510686 1.7319361e-038
-0.013530822 0.074441686 0.13595873 1.7873258e-038
-0.011123948 0.073771961 0.13681076 1.4734652e-038
-0.0088819731 0.073767103 0.13688023 1.4547022e-038
-0.0066402354 0.073762231 0.13694967 1.5186641e-038
-0.0045741973 0.074422255 0.13623625 1.5825894e-038
-0.0025137742 0.07508228 0.13552266 1.7751593e-038
-0.00045896415 0.075742364 0.13480884 1.7288822e-038
0.0017738515 0.075737506 0.13487799 1.7191588e-038
0.0040065022 0.075732671 0.13494721 1.6730981e-038
0.0066169286 0.074397936 0.13658296 1.5533538e-038
0.0088545848 0.074393079 0.13665229 1.3788303e-038
0.011286421 0.073723309 0.1375051 1.4157082e-038
0.01293508 0.075713336 0.1352239 1.4348678e-038
0.015166791 0.075708538 0.1352931 2.164977e-038
0.01719583 0.076368719 0.13457863 1.8695901e-038
0.019629706 0.075699002 0.13543157 1.2408959e-038
0.021860937 0.075694278 0.13550086 1.6734594e-038
0.024092002 0.075689584 0.1355702 1.5923913e-038
0.026109628 0.076349877 0.13485548 1.5828838e-038
0.028337713 0.076345235 0.13492477 1.4802091e-038
0.030565679 0.076340631 0.13499409 2.3487571e-038
0.033014901 0.075671084 0.13584778 2.0998654e-038
0.035245318 0.075666569 0.13591732 1.2501536e-038
0.037475646 0.075662076 0.13598686 1.7013373e-038
0.039246891 0.076987639 0.13448741 1.6374465e-038
0.041471642 0.076983273 0.13455692 1.6736052e-038
0.043461431 0.077643961 0.1338418 1.9408637e-038
0.045920845 0.07697466 0.13469616 2.3490084e-038
0.048385642 0.076305442 0.1355508 2.2016752e-038
0.050612785 0.076301277 0.13562065 1.2417245e-038
0.053085577 0.07563214 0.13647568 2.348216e-038
0.055315305 0.075628102 0.13654581 1.9516664e-038
0.057545073 0.075624131 0.13661604 2.0525774e-038
0.060028564 0.07495515 0.13747171 1.4702325e-038
0.062260997 0.074951328 0.13754222 1.709401e-038
0.064493455 0.074947596 0.13761283 1.7370228e-038
0.066987731 0.074278861 0.1384691 1.6911407e-038
0.070810094 0.070284829 0.14325394 1.5904094e-038
-0.13697331 0.073274538 0.13025904 5.8954504e-039
-0.13477851 0.075271882 0.12800588 9.3826797e-039
-0.13255768 0.075936541 0.12730373 1.6083807e-038
-0.13024661 0.073935941 0.12970506 1.6911051e-038
-0.12797265 0.073267862 0.13055472 1.6544788e-038
-0.12575211 0.073932245 0.12985222 1.6451872e-038
-0.12353713 0.074596591 0.12914938 1.6726659e-038
-0.12136249 0.075927094 0.12767 1.7186917e-038
-0.11901131 0.073926017 0.13007204 1.6911051e-038
-0.11676461 0.073923767 0.13014509 1.6636263e-038
-0.11447515 0.073255122 0.13099454 1.6636983e-038
-0.11227167 0.073919006 0.13029081 1.5902298e-038
-0.11002543 0.07391648 0.13036348 1.6362556e-038
-0.10783041 0.074580245 0.12965922 1.6544788e-038
-0.10558718 0.074577585 0.12973163 1.654443e-038
-0.10334413 0.074574828 0.12980387 1.6451517e-038
-0.10110123 0.074571997 0.12987603 1.6359319e-038
-0.098858505 0.074569061 0.12994803 1.7095442e-038
-0.096615963 0.074566096 0.13001999 1.6543347e-038
-0.094306245 0.073896639 0.13086919 1.7004322e-038
-0.092131414 0.074559875 0.13016354 1.6728456e-038
-0.089889422 0.074556656 0.13023517 1.6819211e-038
-0.087723099 0.075219698 0.12952906 1.7185837e-038
-0.08540602 0.074549988 0.13037807 1.718548e-038
-0.083164632 0.074546538 0.13044937 1.7094723e-038
-0.080839813 0.073876634 0.13129848 1.6636263e-038
-0.07868243 0.074539475 0.13059171 1.812251e-038
-0.076530673 0.075202197 0.12988472 1.8874103e-038
-0.074292816 0.075198479 0.12995556 1.7225708e-038
-0.071960717 0.074528351 0.13080451 1.7043105e-038
-0.069623411 0.073858105 0.13165359 1.7042752e-038
-0.067480668 0.074520595 0.13094589 1.8609011e-038
-0.065343544 0.075183041 0.13023804 1.7687055e-038
-0.063212067 0.075845435 0.12952992 1.879233e-038
-0.060978234 0.075841367 0.12960017 1.6022864e-038
-0.058744624 0.075837255 0.12967035 1.3988821e-038
-0.056511272 0.075833097 0.12974043 1.4265053e-038
-0.054394249 0.076495282 0.12903157 1.518772e-038
-0.051926412 0.075158201 0.13065934 1.5647973e-038
-0.049691044 0.075153872 0.13072929 1.5279547e-038
-0.047455896 0.075149499 0.13079917 1.4173552e-038
-0.045221008 0.075145103 0.130869 1.3990237e-038
-0.042856701 0.074474208 0.13171807 1.5281331e-038
-0.040751908 0.07513617 0.13100848 1.5650831e-038
-0.038517706 0.075131655 0.13107814 1.6851888e-038
-0.036421522 0.07579352 0.13036816 1.7038429e-038
-0.034050047 0.075122468 0.13121723 1.6765453e-038
-0.031816568 0.075117849 0.13128674 1.6487788e-038
-0.029437453 0.074446723 0.13213597 1.7412267e-038
-0.027201738 0.074442029 0.13220546 1.8429663e-038
-0.02511755 0.07510379 0.13149491 1.3816282e-038
-0.02273101 0.074432552 0.13234428 1.4735717e-038
-0.020809364 0.075760752 0.13085334 1.5840985e-038
-0.018420633 0.075089507 0.13170275 1.4735723e-038
-0.016188774 0.075084709 0.13177195 1.7410119e-038
-0.013792371 0.074413382 0.13262153 1.5935352e-038
-0.011390772 0.073741987 0.13347127 1.6207976e-038
-0.0091541884 0.07373713 0.13354059 1.4821084e-038
-0.0070907241 0.074398845 0.13282919 1.5732252e-038
-0.0050328756 0.075060531 0.13211766 1.683285e-038
-0.0029806271 0.075722218 0.13140593 1.7657592e-038
-0.00093397917 0.076383919 0.13069406 1.7748713e-038
0.0014744159 0.075712502 0.13154392 1.8206454e-038
0.0035152407 0.076374225 0.13083187 1.8669593e-038
0.0061177542 0.075036272 0.13246307 2.0616527e-038
0.0085390611 0.074364856 0.13331336 1.868799e-038
0.010965592 0.07369341 0.13416389 2.0532611e-038
0.012805758 0.075021774 0.1326703 1.4624176e-038
0.015034713 0.07501699 0.13273945 1.9247283e-038
0.017060954 0.075678796 0.13202702 1.8051974e-038
0.019081624 0.076340646 0.13131444 1.5638683e-038
0.021096723 0.077002563 0.13060166 1.6380925e-038
0.023527643 0.076331228 0.13145249 2.0902478e-038
0.025963793 0.075659916 0.13230343 1.6474563e-038
0.028405199 0.074988671 0.13315462 1.4244219e-038
0.030414347 0.075650677 0.13244186 1.9973321e-038
0.032639422 0.075646117 0.13251115 1.8786313e-038
0.034864359 0.075641572 0.13258046 1.6285863e-038
0.037542921 0.074303791 0.13421448 1.5167662e-038
0.039084423 0.07629928 0.13193689 1.4161417e-038
0.041074101 0.076961577 0.13122375 1.5720821e-038
0.043058336 0.077623896 0.13051055 1.553282e-038
0.045512382 0.076952964 0.1313626 2.1733682e-038
0.047971763 0.076282009 0.13221489 1.9249452e-038
0.050193392 0.07627783 0.13228455 1.6658245e-038
0.052660782 0.075607046 0.13313723 2.2100303e-038
0.054636616 0.076269671 0.13242416 1.2220249e-038
0.056858134 0.076265685 0.13249408 2.0249543e-038
0.059333526 0.075595081 0.13334727 1.6919339e-038
0.061557733 0.075591251 0.13341747 1.68185e-038
0.064041182 0.074920774 0.1342711 1.755282e-038
0.066530004 0.07425037 0.13512501 1.7554617e-038
0.069818124 0.071579866 0.13832973 1.1314113e-038
-0.13692662 0.072580501 0.12770817 4.609036e-039
-0.13473462 0.074582785 0.12546134 7.4534168e-039
-0.13251641 0.075249106 0.12476131 1.700252e-038
-0.13023171 0.073911548 0.12638229 1.764537e-038
-0.12798968 0.07390976 0.12645577 1.7369505e-038
-0.12577723 0.074575782 0.12575515 1.7277667e-038
-0.12357031 0.075241752 0.12505426 1.7462055e-038
-0.12136895 0.075907663 0.12435301 1.7277664e-038
-0.11906039 0.074569613 0.12597424 1.7186189e-038
-0.11678141 0.073899448 0.12682135 1.737058e-038
-0.11454015 0.073897108 0.1268941 1.7094713e-038
-0.11225333 0.073226757 0.12774125 1.7556054e-038
-0.11005808 0.073892199 0.12703927 1.7464935e-038
-0.10781728 0.073889643 0.1271117 1.6634818e-038
-0.10563049 0.074554935 0.12640926 1.7187273e-038
-0.10333615 0.073884226 0.12725617 1.7002163e-038
-0.10109584 0.073881395 0.12732825 1.7094359e-038
-0.098855689 0.073878519 0.12740025 1.7278387e-038
-0.096680447 0.074543506 0.12669699 1.7279104e-038
-0.094375953 0.073872462 0.12754385 1.7371657e-038
-0.09227664 0.075205289 0.12606494 1.7187266e-038
-0.089896969 0.073866121 0.12768702 1.7186909e-038
-0.08780887 0.075198807 0.12620759 1.7740083e-038
-0.085497007 0.074527487 0.12705429 1.7370583e-038
-0.083260916 0.07452406 0.12712543 1.6451855e-038
-0.080941342 0.073852569 0.1279722 1.8033904e-038
-0.078789346 0.074517012 0.12726745 1.713027e-038
-0.076553874 0.074513391 0.12733832 1.6301232e-038
-0.074318618 0.07450971 0.12740912 1.7134235e-038
-0.07208357 0.074505955 0.12747979 1.8153066e-038
-0.069848739 0.074502125 0.12755038 1.7876479e-038
-0.067614153 0.074498251 0.12762089 1.7409742e-038
-0.06548243 0.075162344 0.12691501 1.5471114e-038
-0.063145638 0.074490324 0.12776165 1.6485637e-038
-0.061019778 0.075154319 0.12705545 1.6302674e-038
-0.058788795 0.075150222 0.12712556 1.5378198e-038
-0.056558054 0.075146072 0.12719557 1.3716174e-038
-0.054327551 0.075141855 0.1272655 1.3158705e-038
-0.051978372 0.074469551 0.12811218 1.3342376e-038
-0.049988844 0.075801432 0.12662826 1.444871e-038
-0.047886048 0.076465167 0.12592092 1.4817493e-038
-0.045534905 0.075792693 0.12676747 1.4541262e-038
-0.043048829 0.074452072 0.12839134 1.4634532e-038
-0.040817041 0.074447602 0.12846099 1.5372816e-038
-0.038585495 0.074443072 0.12853053 1.5557563e-038
-0.036354195 0.074438527 0.12860006 1.435902e-038
-0.033842057 0.073097728 0.13022448 1.3713295e-038
-0.031749051 0.07376121 0.1295165 1.4263593e-038
-0.029515769 0.073756568 0.12958597 1.4173554e-038
-0.027431354 0.07441999 0.12887761 1.7502312e-038
-0.025352599 0.07508342 0.12816904 1.639487e-038
-0.022971366 0.074410573 0.12901612 1.5373172e-038
-0.020741727 0.074405819 0.12908532 1.4172832e-038
-0.018352894 0.073732905 0.12993257 1.5464657e-038
-0.016445331 0.075064391 0.12844543 1.6389487e-038
-0.014054205 0.074391454 0.12929273 1.5740155e-038
-0.011490376 0.073050305 0.13091846 1.6465862e-038
-0.009086201 0.072377272 0.13176614 1.6362533e-038
-0.0070227948 0.073040634 0.1310569 2.0420579e-038
-0.0053163483 0.075040288 0.12879033 1.9684454e-038
-0.0032695781 0.075703688 0.12808058 1.8852178e-038
-0.0012284378 0.076367028 0.12737063 1.8486278e-038
0.0011746511 0.075694017 0.12821823 1.8116775e-038
0.0032099821 0.076357372 0.12750813 1.8944371e-038
0.0058072484 0.075016081 0.12913491 1.894508e-038
0.0080313515 0.075011246 0.1292038 1.9132711e-038
0.010644405 0.073670015 0.13083106 1.9318546e-038
0.012676266 0.0743334 0.13012089 1.8949769e-038
0.01490254 0.074328616 0.13018993 1.839553e-038
0.016925938 0.074992053 0.12947953 1.8762159e-038
0.019149143 0.074987307 0.1295485 1.839086e-038
0.021372184 0.074982576 0.12961751 1.7467453e-038
0.023595091 0.074977867 0.12968655 1.7283415e-038
0.025604365 0.075641483 0.12897581 1.7189434e-038
0.028040422 0.074968539 0.12982468 1.6083089e-038
0.030262846 0.074963912 0.12989381 1.7280912e-038
0.032706723 0.07429105 0.13074298 1.5622474e-038
0.034931611 0.074286506 0.13081227 1.654299e-038
0.037156373 0.074281991 0.13088162 1.764537e-038
0.038921773 0.075614139 0.12939048 1.7829043e-038
0.040908605 0.076278038 0.12867942 1.7645016e-038
0.042889997 0.076941989 0.12796828 1.7830483e-038
0.045579065 0.075601079 0.12959856 1.7462424e-038
0.048038427 0.074928455 0.13044864 1.6172053e-038
0.050260015 0.074924268 0.1305183 1.709401e-038
0.052235711 0.075588487 0.1298072 1.7462424e-038
0.054454461 0.075584404 0.12987693 1.7276955e-038
0.056673199 0.075580403 0.12994674 1.7461346e-038
0.05889193 0.075576469 0.13001662 1.7461703e-038
0.061110627 0.07557261 0.13008662 1.7920882e-038
0.063588649 0.074900426 0.13093792 1.7921238e-038
0.066072039 0.074228361 0.13178946 1.7737566e-038
0.069619611 0.070882887 0.13576674 1.5995211e-038
-0.13686414 0.071219988 0.12593269 3.5026884e-039
-0.13467222 0.073227197 0.12369232 1.3512769e-038
-0.13247535 0.074564785 0.12222285 1.6818489e-038
-0.13021711 0.073893465 0.12306785 1.764537e-038
-0.12800717 0.074561283 0.12236939 1.7553175e-038
-0.12577328 0.07455942 0.12244251 1.7553175e-038
-0.12350725 0.073887847 0.12328743 1.7645726e-038
-0.12134077 0.075224981 0.12181634 1.7553175e-038
-0.11907229 0.074553274 0.12266111 1.7369862e-038
-0.11679851 0.073881432 0.12350595 1.7554254e-038
-0.11451945 0.073209554 0.12435081 1.7186191e-038
-0.11223511 0.072537534 0.1251957 1.700252e-038
-0.10999402 0.072535053 0.12526825 1.7463496e-038
-0.10775308 0.072532497 0.1253407 1.7279104e-038
-0.10556623 0.073199451 0.12464043 1.7370946e-038
-0.10327168 0.072527118 0.12548521 1.7185837e-038
-0.10103124 0.072524287 0.1255573 1.727803e-038
-0.098853044 0.073191017 0.12485643 1.7370225e-038
-0.09668047 0.073857658 0.12415528 1.7093996e-038
-0.094310977 0.072515391 0.12577295 1.6910679e-038
-0.092211694 0.073851518 0.12429836 1.7647167e-038
-0.089904673 0.073178694 0.12514296 1.737058e-038
-0.087894969 0.07518436 0.1228944 1.7370225e-038
-0.085588336 0.074511401 0.1237388 1.7739365e-038
-0.08335755 0.074507996 0.1238098 1.5536371e-038
-0.081043199 0.073834844 0.1246543 1.9240712e-038
-0.078896582 0.074500978 0.12395151 1.6577806e-038
-0.07666643 0.074497372 0.12402222 1.5563664e-038
-0.07434459 0.073824011 0.12486669 1.8981745e-038
-0.072112143 0.073820278 0.12493733 1.722751e-038
-0.069977254 0.074486174 0.1242338 1.657926e-038
-0.06774798 0.074482337 0.12430419 1.6947322e-038
-0.065724395 0.075817756 0.12282613 1.9533134e-038
-0.063395545 0.075144112 0.12367038 1.8980326e-038
-0.061277803 0.075809769 0.12296607 1.8518615e-038
-0.058833141 0.074466333 0.12458476 1.7408301e-038
-0.056605019 0.074462183 0.1246547 1.6484191e-038
-0.054260861 0.073788278 0.12549923 1.5559369e-038
-0.052030507 0.073784038 0.12556911 1.5095879e-038
-0.050165452 0.075788915 0.12331463 1.5184472e-038
-0.048068076 0.076454297 0.12260927 1.4539102e-038
-0.045722172 0.075780235 0.12345356 1.417176e-038
-0.043241296 0.074436367 0.12507293 1.3434206e-038
-0.040749855 0.073092416 0.12669264 1.5462865e-038
-0.038788669 0.074427411 0.12521181 1.5370661e-038
-0.036424797 0.073753104 0.12605649 1.4726007e-038
-0.03405574 0.073078796 0.12690122 1.5185549e-038
-0.031968199 0.073743917 0.12619521 1.5460337e-038
-0.030032327 0.075078867 0.12471346 1.5833794e-038
-0.027958782 0.075743958 0.12400691 1.5744826e-038
-0.025587993 0.075069517 0.12485155 1.5190932e-038
-0.023366205 0.075064823 0.12492055 1.5924546e-038
-0.021144623 0.075060092 0.12498951 1.5831273e-038
-0.019082857 0.075725131 0.12428249 1.6567406e-038
-0.017026708 0.076390162 0.12357529 1.3339837e-038
-0.014976183 0.077055186 0.12286787 1.6361457e-038
-0.01226072 0.075041011 0.12526503 1.7095068e-038
-0.01004031 0.07503619 0.12533382 1.7554251e-038
-0.0078201257 0.07503137 0.1254026 1.746241e-038
-0.0059516695 0.076366201 0.12391853 1.7646081e-038
-0.0039157849 0.077031195 0.12321058 1.7280895e-038
-0.0017043424 0.07702639 0.1232791 1.737489e-038
0.0010584127 0.075012058 0.12567763 1.6452934e-038
0.0029044244 0.076346919 0.12419284 1.7558202e-038
0.0053071836 0.075672254 0.12503827 1.7925544e-038
0.0075231842 0.075667441 0.12510692 1.8481958e-038
0.0099336281 0.074992776 0.1259526 1.8022063e-038
0.011954602 0.075657837 0.12524423 1.8117494e-038
0.014170021 0.075653069 0.12531292 1.6918597e-038
0.016588014 0.074978404 0.12615888 1.7557851e-038
0.019011235 0.074303783 0.12700506 1.7372383e-038
0.021439709 0.073629111 0.12785143 1.7374183e-038
0.023451716 0.074294344 0.12714289 1.8018832e-038
0.025458146 0.074959561 0.12643424 1.7650769e-038
0.027891522 0.074284993 0.12728082 1.9218092e-038
0.029892307 0.074950285 0.12657207 1.8386535e-038
0.03210919 0.074945718 0.12664108 1.8756025e-038
0.034101587 0.075611085 0.12593216 1.8755305e-038
0.03654252 0.074936658 0.12677918 1.7921237e-038
0.038759038 0.07493218 0.1268483 1.8012712e-038
0.040743016 0.075597711 0.1261393 1.7553896e-038
0.042721551 0.076263294 0.12543018 1.7645016e-038
0.045170192 0.075589031 0.12627769 1.7829407e-038
0.04738364 0.075584754 0.12634695 1.7645016e-038
0.049597003 0.075580552 0.12641631 1.7645017e-038
0.051810354 0.075576402 0.12648575 1.7645017e-038
0.054023642 0.075572327 0.12655526 1.7645016e-038
0.056488134 0.074898317 0.12740363 1.7553899e-038
0.058704063 0.074894369 0.12747341 1.7461703e-038
0.060663309 0.075560458 0.12676431 1.7461703e-038
0.063135847 0.07488665 0.12761322 1.7829043e-038
0.065613814 0.074212909 0.12846239 1.7829762e-038
0.068626724 0.072199203 0.13087031 1.6822451e-038
0.072993129 0.066835493 0.1371754 1.250726e-038
-0.13680167 0.069859251 0.12415695 3.0410012e-039
-0.13466606 0.073885053 0.11961501 1.305396e-038
-0.13245583 0.074554674 0.11891901 1.6635543e-038
-0.13022698 0.074553005 0.11899221 1.7828687e-038
-0.12799825 0.074551232 0.11906527 1.7553176e-038
-0.12576962 0.074549384 0.11913823 1.7369505e-038
-0.12354112 0.074547425 0.11921103 1.7369505e-038
-0.12134776 0.075216606 0.11851389 1.7369505e-038
-0.11908449 0.074543275 0.11935633 1.7553899e-038
-0.11681593 0.073869832 0.12019881 1.7461701e-038
-0.11454209 0.073196292 0.12104134 1.7370225e-038
-0.11226296 0.07252264 0.121884 1.7370225e-038
-0.11007575 0.073191456 0.12118607 1.7278387e-038
-0.1077915 0.072517633 0.12202869 1.7278387e-038
-0.10561004 0.073186271 0.12133033 1.7370225e-038
-0.10337742 0.073183551 0.12140228 1.7094361e-038
-0.10120443 0.073852003 0.12070347 1.7186557e-038
-0.098974884 0.073849156 0.12077517 1.727875e-038
-0.096745528 0.073846199 0.1208467 1.7094359e-038
-0.094516337 0.073843174 0.12091814 1.700252e-038
-0.092357635 0.074511349 0.12021851 1.700252e-038
-0.090131551 0.074508198 0.12028968 1.7462058e-038
-0.087981381 0.075176224 0.11958955 1.7645016e-038
-0.085601546 0.073830366 0.12120291 1.7553899e-038
-0.083373353 0.073826976 0.12127383 1.5728304e-038
-0.081145376 0.073823519 0.12134465 1.8507102e-038
-0.079004161 0.074491292 0.12064391 1.5839162e-038
-0.076690048 0.073816411 0.12148605 1.6760045e-038
-0.074370727 0.073141463 0.12232827 1.9897241e-038
-0.072046191 0.072466411 0.12317064 1.6671825e-038
-0.069911294 0.07313396 0.12246929 1.6392708e-038
-0.06778203 0.073801428 0.12176774 2.0640555e-038
-0.065761201 0.075140163 0.12029392 2.0089945e-038
-0.063540414 0.075136214 0.12036386 1.4917634e-038
-0.061211627 0.074460901 0.12120594 1.3794728e-038
-0.058877654 0.073785499 0.12204807 1.4436143e-038
-0.056538511 0.073110044 0.1228903 1.37011e-038
-0.05419419 0.072434485 0.12373268 1.2976122e-038
-0.052082811 0.073101655 0.12303003 1.4822533e-038
-0.049977098 0.073768742 0.12232718 1.3717973e-038
-0.048001513 0.075107127 0.12085138 1.5653724e-038
-0.045655463 0.074431427 0.12169353 1.8978531e-038
-0.043434121 0.074427038 0.12176292 1.8335684e-038
-0.04094784 0.073079854 0.12337814 1.870376e-038
-0.038586296 0.072403952 0.12422065 1.3711868e-038
-0.036219563 0.071728051 0.12506321 1.7123828e-038
-0.033988401 0.071723476 0.12513271 1.5189149e-038
-0.032044273 0.07306172 0.12365554 1.4720622e-038
-0.029965114 0.073728479 0.12295137 1.673744e-038
-0.027742779 0.07372386 0.12302049 1.7472125e-038
-0.025369177 0.073047765 0.12386306 1.7379575e-038
-0.023144631 0.073043056 0.12393215 1.7745476e-038
-0.020920342 0.07303834 0.12400121 1.7375611e-038
-0.019015513 0.074376464 0.12252267 1.7371657e-038
-0.016797103 0.074371703 0.12259147 1.7370583e-038
-0.014578916 0.074366935 0.12266026 1.7554619e-038
-0.012025506 0.073019259 0.12427711 1.8014877e-038
-0.0098023713 0.073014438 0.12434599 1.7554974e-038
-0.0075794761 0.073009625 0.12441487 1.764717e-038
-0.0053567896 0.073004805 0.12448374 1.7647167e-038
-0.0033128913 0.073671453 0.12377824 1.7371657e-038
-0.0010933604 0.073666617 0.12384698 1.774044e-038
0.0014938293 0.072318792 0.12546487 1.7648604e-038
0.0035316832 0.07298547 0.12475909 1.7556409e-038
0.0057532694 0.072980627 0.1248279 1.7372018e-038
0.007974674 0.072975829 0.12489675 1.7831195e-038
0.010390569 0.072299458 0.12574048 1.7738999e-038
0.012219409 0.073637716 0.12425944 1.7373458e-038
0.01443754 0.073632933 0.12432821 1.7556409e-038
0.016858285 0.072956637 0.12517212 1.7834438e-038
0.019695291 0.070937254 0.12756668 1.7004677e-038
0.021715431 0.071604013 0.1268605 1.7372739e-038
0.023940943 0.071599305 0.12692963 1.7649326e-038
0.025525428 0.073609263 0.12467228 1.7188348e-038
0.027958833 0.072933063 0.12551673 1.7096151e-038
0.030178472 0.072928429 0.12558575 1.7096151e-038
0.032397989 0.072923839 0.12565482 1.7280542e-038
0.034617361 0.072919279 0.12572391 1.7556765e-038
0.037063725 0.072243139 0.12656897 1.774044e-038
0.039515354 0.071567088 0.12741423 1.7279104e-038
0.041739766 0.071562633 0.12748365 1.7554971e-038
0.04372891 0.072229803 0.12677696 1.7278387e-038
0.045950431 0.072225451 0.12684643 1.7094359e-038
0.048171889 0.07222116 0.12691593 1.7370946e-038
0.050393268 0.072216921 0.12698552 1.7186917e-038
0.052614603 0.072212733 0.12705517 1.7186557e-038
0.054835845 0.072208598 0.12712489 1.7463504e-038
0.057308435 0.071532935 0.12797135 1.7462421e-038
0.059532322 0.071528926 0.12804133 1.7739008e-038
0.061499443 0.07219664 0.12733464 1.7462058e-038
0.063720614 0.072192781 0.1274047 1.7739365e-038
0.06567961 0.072860673 0.12669785 1.7279107e-038
0.0689575 0.07017038 0.12987639 1.6546944e-038
0.072792001 0.066136777 0.13461003 1.3428496e-038
-0.1367553 0.06917116 0.12161374 3.6860105e-039
-0.13458505 0.071861126 0.11861904 1.4439068e-038
-0.13239358 0.073205248 0.11715802 1.709761e-038
-0.13014036 0.072530717 0.11799856 1.8199989e-038
-0.1278818 0.071856089 0.11883915 1.8292182e-038
-0.12561792 0.071181327 0.11967985 1.8015952e-038
-0.12338112 0.07117939 0.11975297 1.727803e-038
-0.12121467 0.072523125 0.1182905 1.7462421e-038
-0.11894576 0.071848132 0.11913098 1.7370225e-038
-0.11671208 0.071845926 0.11920363 1.7647532e-038
-0.1143488 0.069824986 0.12158012 1.8109228e-038
-0.11210728 0.069822595 0.12165281 1.8385815e-038
-0.10986592 0.069820143 0.12172541 1.764825e-038
-0.10767609 0.070490479 0.12102965 1.8015232e-038
-0.10549185 0.071160726 0.12033359 1.8290021e-038
-0.10319959 0.07048513 0.12117405 1.7924119e-038
-0.10102112 0.071155235 0.12047762 1.7371664e-038
-0.098786019 0.071152374 0.12054947 1.746458e-038
-0.096551113 0.071149439 0.12062122 1.7556776e-038
-0.094316386 0.071146414 0.12069283 1.6911405e-038
-0.092152216 0.07181628 0.1199955 1.7279467e-038
-0.08992058 0.071813107 0.12006682 1.7554974e-038
-0.087689154 0.07180988 0.12013809 1.7370225e-038
-0.085379422 0.071133621 0.12097836 1.7278387e-038
-0.083064474 0.070457309 0.12181868 1.5085819e-038
-0.080828249 0.070453867 0.1218898 1.7585156e-038
-0.078592233 0.070450351 0.12196083 1.5469674e-038
-0.076356441 0.070446745 0.12203173 1.5929571e-038
-0.074028812 0.069770172 0.12287211 1.8882721e-038
-0.071695983 0.069093496 0.12371255 1.7409022e-038
-0.069552913 0.06976267 0.12301369 1.5932461e-038
-0.067415498 0.070431769 0.12231454 1.5660917e-038
-0.065283731 0.071100824 0.12161514 2.1470352e-038
-0.063052014 0.071096875 0.12168545 1.1677829e-038
-0.060820527 0.071092889 0.12175571 1.5726879e-038
-0.05847827 0.070415854 0.122596 1.664704e-038
-0.056244567 0.070411727 0.12266615 1.6373699e-038
-0.053894665 0.069734566 0.12350652 1.3621494e-038
-0.051777873 0.070403337 0.12280624 1.4270082e-038
-0.049544908 0.070399061 0.12287617 1.5654799e-038
-0.047436729 0.07106775 0.12217551 1.6487079e-038
-0.045079704 0.070390403 0.12301587 1.722717e-038
-0.042847473 0.070385993 0.1230856 1.7507012e-038
-0.040482823 0.069708548 0.1239261 1.8244945e-038
-0.038248397 0.069704048 0.1239958 1.3532873e-038
-0.035876118 0.069026507 0.12483644 1.7500169e-038
-0.033780262 0.069694974 0.12413504 1.6850485e-038
-0.031403091 0.069017343 0.12497573 1.4260027e-038
-0.029313134 0.06968575 0.12427408 1.3696424e-038
-0.027079955 0.069681093 0.12434351 1.5258355e-038
-0.024695423 0.069003373 0.12518433 1.5073243e-038
-0.022614308 0.069671705 0.12448228 1.6178148e-038
-0.020538853 0.070340052 0.12378006 1.5808285e-038
-0.018469086 0.071008377 0.12307761 1.6542257e-038
-0.016242499 0.071003631 0.12314671 1.6541902e-038
-0.013851095 0.070325762 0.12398756 1.6174919e-038
-0.011454508 0.069647864 0.12482853 1.589977e-038
-0.0092232423 0.069643058 0.12489773 1.6174916e-038
-0.0069922297 0.069638222 0.12496685 1.6541902e-038
-0.0045855427 0.068960279 0.12580813 1.6726294e-038
-0.0025308891 0.069628544 0.12510508 1.6358587e-038
-0.00030054618 0.069623709 0.12517421 1.6266036e-038
0.0021135588 0.068945728 0.12601569 1.6266036e-038
0.0041594696 0.069614016 0.12531237 1.6358231e-038
0.0065785483 0.068936035 0.12615404 1.6266392e-038
0.0088107241 0.068931177 0.12622316 1.6450783e-038
0.010847876 0.069599517 0.12551965 1.6266392e-038
0.012879443 0.070267826 0.12481588 1.6082721e-038
0.0151056 0.070263028 0.1248849 1.589905e-038
0.017534524 0.069585077 0.12572691 1.5991245e-038
0.019968642 0.068907134 0.12656911 1.6082721e-038
0.021991344 0.069575548 0.12586518 1.6174919e-038
0.024430526 0.06889762 0.12670757 1.6450427e-038
0.026447507 0.069566108 0.12600353 1.6358231e-038
0.029108142 0.068214998 0.12761964 1.6174196e-038
0.031122129 0.068883561 0.12691551 1.6266392e-038
0.033130575 0.069552131 0.12621132 1.6542977e-038
0.035357986 0.069547549 0.12628067 1.6358586e-038
0.037812427 0.068869792 0.12712377 1.6358586e-038
0.040502038 0.0675188 0.12874098 1.6358587e-038
0.042737164 0.0675143 0.1288107 1.6358587e-038
0.044972237 0.067509875 0.12888052 1.6266036e-038
0.046969187 0.068178721 0.12817629 1.6450427e-038
0.049441993 0.067501143 0.12902029 1.5899053e-038
0.051433384 0.068170115 0.12831602 1.5715024e-038
0.053665426 0.068165891 0.12838601 1.5623552e-038
0.055648606 0.06883502 0.12768155 1.5349121e-038
0.058380675 0.067484364 0.12930065 1.5627507e-038
0.06061526 0.067480326 0.12937094 1.5445637e-038
0.06284979 0.067476362 0.12944132 1.5815497e-038
0.064565271 0.068819053 0.12796226 1.5997009e-038
0.066532128 0.069488518 0.12725781 1.5442395e-038
0.06928847 0.068138167 0.12887813 1.4433284e-038
0.074196503 0.061401524 0.13669901 8.741276e-039
-0.13662821 0.065113612 0.12289932 1.8420965e-039
-0.13448505 0.069159135 0.1183835 1.1214723e-038
-0.13228814 0.070506573 0.11692692 1.4981062e-038
-0.13002925 0.069830365 0.11776556 1.6083441e-038
-0.12773801 0.068479598 0.11936949 1.6267115e-038
-0.12546577 0.067803234 0.12020828 1.6174919e-038
-0.12318823 0.067126751 0.1210472 1.6174562e-038
-0.12101092 0.068473764 0.11958937 1.6082366e-038
-0.11873093 0.067797147 0.12042809 1.5715024e-038
-0.11652686 0.068469472 0.11973541 1.5807577e-038
-0.11424173 0.067792654 0.12057404 1.5900493e-038
-0.11199735 0.067790277 0.12064684 1.6086319e-038
-0.10970439 0.06711325 0.12148557 1.5351994e-038
-0.10750907 0.067785278 0.1207921 1.5258358e-038
-0.10526517 0.06778267 0.12086459 1.544095e-038
-0.10302145 0.067779951 0.12093691 1.5901208e-038
-0.10083751 0.06845171 0.12024282 1.5624621e-038
-0.098534547 0.067774318 0.12108129 1.5348034e-038
-0.096291371 0.067771383 0.12115332 1.5348034e-038
-0.094048381 0.067768373 0.12122525 1.544023e-038
-0.091805577 0.067765288 0.12129707 1.5348035e-038
-0.08956299 0.067762122 0.12136877 1.5808653e-038
-0.087320596 0.067758881 0.12144037 1.5532062e-038
-0.084999815 0.067080982 0.12227891 1.5348387e-038
-0.082673848 0.066403031 0.12311743 1.2231365e-038
-0.08034265 0.065724999 0.12395604 1.3988113e-038
-0.07809297 0.065721482 0.12402753 1.4266852e-038
-0.07584352 0.065717898 0.1240989 1.2148863e-038
-0.073594287 0.065714233 0.1241702 1.2334327e-038
-0.07144013 0.066385105 0.12347394 1.5562969e-038
-0.069194071 0.06638132 0.12354495 1.362794e-038
-0.06684798 0.065702878 0.12438351 1.2797103e-038
-0.064599685 0.065698981 0.12445446 1.5009441e-038
-0.062457308 0.066369608 0.12375748 1.5376786e-038
-0.060212187 0.066365615 0.12382819 1.6391289e-038
-0.058078431 0.067036137 0.12313078 1.6303771e-038
-0.055722699 0.066357404 0.12396929 1.5844234e-038
-0.053478315 0.066353232 0.12403974 1.2431198e-038
-0.051234197 0.066349015 0.12411011 1.2982935e-038
-0.048746463 0.064995468 0.12571707 1.446021e-038
-0.046622053 0.065665781 0.12501909 1.4369104e-038
-0.044375986 0.065661401 0.12508932 1.6029347e-038
-0.042260196 0.066331655 0.12439093 1.7413021e-038
-0.039884567 0.065652534 0.12522963 1.5384346e-038
-0.037639257 0.065648042 0.12529968 1.3723011e-038
-0.035256032 0.064968854 0.12613855 1.4736074e-038
-0.033149377 0.065638945 0.12543966 1.5287826e-038
-0.030904824 0.065634347 0.12550956 1.4826141e-038
-0.028660504 0.065629728 0.12557942 1.5565129e-038
-0.026267488 0.064950369 0.12641838 1.528818e-038
-0.023869313 0.064270958 0.12725745 1.5380737e-038
-0.02177472 0.064940944 0.12655802 1.565984e-038
-0.019528728 0.064936198 0.12662777 1.584279e-038
-0.0174428 0.065606147 0.125928 1.5656243e-038
-0.015037488 0.064926654 0.1267672 1.435654e-038
-0.012792241 0.064921848 0.12683685 1.2503266e-038
-0.010379331 0.064242296 0.12767623 1.4798453e-038
-0.0081318608 0.064237438 0.12774588 1.525656e-038
-0.0058846148 0.064232603 0.12781556 1.5439871e-038
-0.0034616082 0.063552946 0.12865525 1.5624261e-038
-0.0012121554 0.063548058 0.12872493 1.589977e-038
0.0010370868 0.0635432 0.12879467 1.5715382e-038
0.0031019924 0.064213105 0.12809402 1.5439515e-038
0.0055349036 0.063533433 0.12893403 1.5623906e-038
0.0077834614 0.06352856 0.12900369 1.5715382e-038
0.010031841 0.063523687 0.12907337 1.5807577e-038
0.012085054 0.064193644 0.12837239 1.5715382e-038
0.014330334 0.064188786 0.12844197 1.5715382e-038
0.016575376 0.06418395 0.12851159 1.5531711e-038
0.018820222 0.06417913 0.12858123 1.5439515e-038
0.020859178 0.064849131 0.12787992 1.5623906e-038
0.02289262 0.065519176 0.12717848 1.5531711e-038
0.025553675 0.064164758 0.12879017 1.5807574e-038
0.027797803 0.064160012 0.12885986 1.5715379e-038
0.03047476 0.062805593 0.13047217 1.5623183e-038
0.032504775 0.063475721 0.12977073 1.5715379e-038
0.034529261 0.064145952 0.12906915 1.5807577e-038
0.036772821 0.064141333 0.12913898 1.5807577e-038
0.03901618 0.064136751 0.12920886 1.5807577e-038
0.041719403 0.062782422 0.13082218 1.5807577e-038
0.043967932 0.062777907 0.13089232 1.5715382e-038
0.046451721 0.062098555 0.13173436 1.5716458e-038
0.048464697 0.062769011 0.13103276 1.589977e-038
0.050953694 0.062089749 0.13187511 1.5716456e-038
0.053447947 0.061410524 0.13271765 1.5166162e-038
0.05570145 0.061406262 0.13278832 1.4983213e-038
0.057954863 0.061402045 0.13285902 1.3521046e-038
0.06020822 0.061397873 0.13292976 1.5460397e-038
0.062461551 0.061393782 0.13300063 1.5180213e-038
0.064714819 0.061389759 0.13307157 1.5920295e-038
0.066189259 0.063410565 0.13082477 1.5088015e-038
0.068172105 0.064081647 0.1301229 1.3793665e-038
0.070944637 0.062727973 0.13173941 1.3331976e-038
-0.13643552 0.058338068 0.1272186 2.2115951e-039
-0.13427094 0.062393457 0.1227164 6.3495958e-039
-0.132074 0.064420328 0.12050188 1.4981059e-038
-0.12979586 0.063742518 0.12133898 1.5807574e-038
-0.12748533 0.06238842 0.12293931 1.5715736e-038
-0.12519386 0.061710406 0.12377659 1.5807574e-038
-0.1228971 0.06103231 0.12461395 1.5715379e-038
-0.12073606 0.063058756 0.12239768 1.5531712e-038
-0.11847752 0.06305664 0.12247128 1.5531356e-038
-0.11621913 0.063054428 0.12254477 1.5623912e-038
-0.11391749 0.062375933 0.12338185 1.6454749e-038
-0.11170281 0.063049771 0.12269142 1.5628581e-038
-0.10939607 0.062371098 0.12352845 1.5998084e-038
-0.10718713 0.063044772 0.12283762 1.5537106e-038
-0.10498378 0.063718326 0.1221465 1.5167603e-038
-0.10272908 0.063715607 0.1222192 1.5627503e-038
-0.10041489 0.06303665 0.12305603 1.6087761e-038
-0.098095432 0.06235756 0.12389294 1.5995923e-038
-0.095835842 0.062354624 0.12396552 1.5166882e-038
-0.093576461 0.062351599 0.12403799 1.4890296e-038
-0.091317274 0.0623485 0.12411033 1.4705547e-038
-0.08905828 0.062345348 0.12418263 1.4797022e-038
-0.086723559 0.061665889 0.12501949 1.544023e-038
-0.084383607 0.060986377 0.12585646 1.5073241e-038
-0.08211983 0.060982965 0.12592855 1.3423073e-038
-0.079856277 0.060979508 0.12600058 1.2421508e-038
-0.077592932 0.060975991 0.12607254 1.3714044e-038
-0.07532981 0.060972385 0.12614436 1.2239626e-038
-0.073159143 0.061644945 0.12545086 1.2056678e-038
-0.070994131 0.062317446 0.12475709 1.5100199e-038
-0.068639487 0.061637443 0.12559392 1.4271156e-038
-0.066179328 0.060281113 0.12719628 1.3810889e-038
-0.063914694 0.060277179 0.12726773 1.390344e-038
-0.061756045 0.060949467 0.12657346 1.4271144e-038
-0.059603065 0.061621692 0.12587894 1.4456622e-038
-0.057344571 0.061617617 0.12594999 1.5655165e-038
-0.055200197 0.062289752 0.12525505 1.6027184e-038
-0.052828323 0.061609317 0.12609188 1.5934989e-038
-0.050570585 0.061605062 0.12616268 1.5569806e-038
-0.048191067 0.060924515 0.12699965 1.4739327e-038
-0.046055853 0.061596449 0.12630412 1.4553495e-038
-0.043671459 0.060915798 0.1271411 1.6673651e-038
-0.041412048 0.06091138 0.12721172 1.6582184e-038
-0.039152876 0.060906902 0.12728229 1.4183283e-038
-0.037165027 0.062255017 0.12581961 1.4644967e-038
-0.03477354 0.061574187 0.12665659 1.510558e-038
-0.0326588 0.06224592 0.12596014 1.5196701e-038
-0.030262433 0.061564993 0.12679715 1.5474365e-038
-0.028153602 0.062236704 0.12610044 1.6304123e-038
-0.025752366 0.061555702 0.12693754 1.6396321e-038
-0.023194164 0.060198322 0.12854186 1.6581076e-038
-0.020934368 0.060193591 0.1286121 1.6030066e-038
-0.018674809 0.060188822 0.12868229 1.6582875e-038
-0.016575387 0.060860403 0.1279851 1.611938e-038
-0.014319058 0.060855605 0.12805514 1.6207987e-038
-0.011897678 0.06017442 0.12889268 1.5839202e-038
-0.0096391439 0.0601696 0.12896276 1.7026247e-038
-0.0073808315 0.060164742 0.12903279 1.4062329e-038
-0.0051228013 0.060159869 0.12910278 1.5256559e-038
-0.0028649801 0.060154997 0.12917277 1.5439875e-038
-0.00096493354 0.061502915 0.12770687 1.5440231e-038
0.0014684838 0.060821645 0.12854469 1.5532066e-038
0.0035387203 0.06149317 0.12784643 1.5439875e-038
0.0059770681 0.060811877 0.1286844 1.5347679e-038
0.0082310466 0.060807005 0.12875427 1.5164008e-038
0.010484817 0.060802132 0.12882413 1.580722e-038
0.012543347 0.061473694 0.12812552 1.5899415e-038
0.014991658 0.060792401 0.12896383 1.5715024e-038
0.017244771 0.060787544 0.1290337 1.5623552e-038
0.019700767 0.060106255 0.12987226 1.5531356e-038
0.021544661 0.061454337 0.12840465 1.5531356e-038
0.023794511 0.061449539 0.12847447 1.5623552e-038
0.026044169 0.061444756 0.1285443 1.5716462e-038
0.028721392 0.060087062 0.13015226 1.5531712e-038
0.030976094 0.060082316 0.13022231 1.5623908e-038
0.033449896 0.059401114 0.13106158 1.5622831e-038
0.035485048 0.060072929 0.13036253 1.5531712e-038
0.037963957 0.059391771 0.13120203 1.5623552e-038
0.039766066 0.060740158 0.12973344 1.5715747e-038
0.042017393 0.060735613 0.12980363 1.5531356e-038
0.044501286 0.060054556 0.13064346 1.5623552e-038
0.04699048 0.059373554 0.13148351 1.5439875e-038
0.049484931 0.058692545 0.13232383 1.5716462e-038
0.052466355 0.056658544 0.1347041 1.6178516e-038
0.05546385 0.054624543 0.13708498 1.0027325e-038
0.057738788 0.054620206 0.13715625 9.8465333e-039
0.05901802 0.057322152 0.13414706 9.3808805e-039
0.060778853 0.05867105 0.13267772 9.7475064e-039
0.063037485 0.058666937 0.13274872 9.0996188e-039
0.065553024 0.057986341 0.13359022 9.652085e-039
0.067035206 0.060012065 0.13135001 1.0111265e-038
0.06955073 0.059331607 0.13219167 1.5085121e-038
0.072336741 0.057974584 0.13380428 1.2688766e-038
-0.13624161 0.051536027 0.13150331 1.3850714e-039
-0.13409369 0.056956857 0.12549317 6.2577575e-039
-0.13188054 0.058988653 0.12328564 1.5348756e-038
-0.12963486 0.059664778 0.12259934 1.5715736e-038
-0.12736751 0.05966302 0.12267373 1.5624258e-038
-0.12507041 0.058983363 0.12350905 1.5624261e-038
-0.12276799 0.058303613 0.12434442 1.5532066e-038
-0.12053094 0.058979377 0.12365735 1.5440599e-038
-0.1182614 0.058977276 0.12373136 1.5348404e-038
-0.11599202 0.058975078 0.12380525 1.5073258e-038
-0.11367931 0.058294971 0.1246405 1.4244217e-038
