# .PCD v0.7 - Point Cloud Data file format
VERSION 0.7
FIELDS x y z rgb
SIZE 4 4 4 4
TYPE F F F F
COUNT 1 1 1 1
WIDTH 934
HEIGHT 1
VIEWPOINT 0 0 0 1 0 0 0
POINTS 934
DATA ascii
0.01347003 0.042141624 -0.10774706 1.2077543e-038
0.015840765 0.040490326 -0.1065331 1.5651495e-039
0.014903681 0.050409429 -0.11335292 6.4356594e-040
0.016298905 0.052063946 -0.11443541 1.6137816e-038
0.018168014 0.05206551 -0.11437016 1.1526891e-038
0.022487996 0.043802477 -0.10856337 9.4946477e-039
0.02562261 0.039671801 -0.10562599 1.1041783e-039
0.0295354 0.033061814 -0.10096467 2.118689e-039
0.029946506 0.038022064 -0.10434392 1.4758391e-039
0.027766362 0.051246729 -0.11346958 4.6240888e-040
0.029378418 0.052074723 -0.11397898 1.5308415e-038
0.031246204 0.052076228 -0.11391385 1.2079004e-038
0.034169648 0.048771951 -0.1115495 7.930566e-039
0.036047917 0.048773441 -0.11148404 1.5678253e-038
0.038195379 0.047948442 -0.11084355 1.1986445e-038
0.043340333 0.038032755 -0.10387697 1.1429666e-038
0.044154305 0.041339956 -0.10611109 2.3037823e-039
0.043559644 0.048779264 -0.11122238 2.2191523e-039
0.044877138 0.05043352 -0.11230774 1.5309811e-038
0.047880482 0.047129218 -0.10994074 1.1161359e-038
0.04947789 0.047957014 -0.11045079 2.1236958e-039
0.051069837 0.048784845 -0.11096109 8.211857e-039
0.052947219 0.048786197 -0.11089583 1.3369744e-038
0.05687936 0.043002598 -0.10679971 1.3181009e-038
0.057294335 0.047135994 -0.10961351 1.2889255e-039
0.058280185 0.049616542 -0.11127624 1.2357795e-038
0.060154773 0.049617812 -0.11121117 1.3274313e-038
0.06355086 0.04548702 -0.10826509 1.2443457e-038
0.064824961 0.047141053 -0.10935222 9.1978989e-040
0.067017332 0.046315864 -0.10871058 1.5301958e-038
0.070152223 0.043011434 -0.10633928 6.3568237e-039
0.072993636 0.040533431 -0.10454389 2.1201337e-039
0.071085036 0.050451353 -0.11139811 8.3263193e-040
0.072636805 0.051278844 -0.11191011 1.7059769e-038
0.074829549 0.050453532 -0.11126862 1.4287356e-038
0.079308525 0.043843392 -0.10658827 8.6616542e-039
0.084487647 0.035580497 -0.10075237 2.2108678e-039
0.087733589 0.03227593 -0.098377481 2.9495147e-039
-0.11648908 0.040883038 -0.11378662 4.4275258e-039
-0.11466906 0.042540245 -0.11485113 7.2855903e-039
-0.11259507 0.040056296 -0.11308946 1.1084831e-039
-0.11128509 0.049167763 -0.11924285 6.4679453e-040
-0.10939224 0.049168568 -0.11917779 1.631969e-038
-0.10749958 0.049169399 -0.11911269 1.4753082e-038
-0.10541548 0.046685509 -0.1173505 1.4199544e-038
-0.10358167 0.047514673 -0.11785088 1.4291739e-038
-0.10140689 0.044202622 -0.11552202 6.732418e-039
-0.099930972 0.049172975 -0.11885206 2.0282786e-039
-0.09818887 0.050830435 -0.11991898 1.0877982e-038
-0.096302889 0.050831411 -0.11985392 9.1266317e-039
-0.093535073 0.041721821 -0.11356007 9.2122482e-040
-0.092034221 0.04586402 -0.11632564 6.4320721e-040
-0.090303883 0.047521561 -0.11739284 1.4104841e-038
-0.088407993 0.047522642 -0.11732731 1.0972681e-038
-0.086512342 0.047523748 -0.11726175 1.5680222e-039
-0.085085809 0.051665995 -0.12002978 1.2078677e-038
-0.083204225 0.051667135 -0.11996466 1.1527992e-038
-0.081223719 0.050840091 -0.1193326 3.9672427e-039
-0.079238035 0.050013017 -0.11870033 7.928813e-039
-0.077351823 0.050014228 -0.11863495 1.4014076e-038
-0.075573236 0.050843712 -0.11913678 9.3629158e-041
-0.073580205 0.050016705 -0.11850416 1.2079043e-038
-0.071694821 0.050017975 -0.11843874 1.2356351e-038
-0.069925189 0.050847515 -0.1189408 7.4692613e-039
-0.068161257 0.051677015 -0.119443 1.199604e-039
-0.066403046 0.052506536 -0.11994536 1.4844189e-038
-0.064279698 0.05085149 -0.11874469 6.0870219e-039
-0.062272087 0.050024606 -0.11811139 1.4014428e-038
-0.06051746 0.050854228 -0.11861386 1.0051448e-038
-0.058900282 0.052512001 -0.1196845 5.535241e-040
-0.056756418 0.050857037 -0.118483 1.6133501e-038
-0.055150684 0.052514832 -0.11955398 6.361825e-039
-0.052996568 0.05085991 -0.11835209 4.0555077e-039
-0.051117092 0.05086137 -0.11828662 1.4935644e-038
-0.049383216 0.051691018 -0.11878964 6.1766924e-039
-0.047211055 0.050036106 -0.11758702 1.7056144e-038
-0.04548049 0.050865833 -0.11809016 1.3730591e-038
-0.043295406 0.049210954 -0.11688705 1.5571261e-038
-0.041255925 0.048384313 -0.11625247 1.7605352e-038
-0.039370161 0.048385862 -0.11618669 1.2900462e-038
-0.037646241 0.049215589 -0.11668994 1.3449656e-038
-0.036256481 0.051701691 -0.11833176 1.685836e-038
-0.034549415 0.052531425 -0.11883557 1.8057611e-038
-0.032848038 0.053361166 -0.11933959 1.630554e-038
-0.030807685 0.052534595 -0.1187049 1.4276525e-038
-0.028937284 0.052536193 -0.11863954 1.6489223e-038
-0.027067166 0.052537795 -0.1185742 1.7687767e-038
-0.025016932 0.051711261 -0.11793913 1.9071056e-038
-0.022778414 0.050056547 -0.11673401 1.7319339e-038
-0.020715266 0.049230035 -0.11609846 1.7042752e-038
-0.018835545 0.049231682 -0.11603275 1.6858003e-038
-0.017338652 0.05088966 -0.11710728 1.7964351e-038
-0.015658885 0.051719442 -0.11761196 1.9439484e-038
-0.013984795 0.052549228 -0.11811683 1.7964353e-038
-0.011917701 0.05172275 -0.11748111 1.667398e-038
-0.0098455157 0.050896283 -0.11684521 1.5291047e-038
-0.0079729278 0.050897948 -0.11677971 1.7780343e-038
-0.0061006229 0.050899614 -0.11671421 1.1785161e-038
-0.0044387439 0.0517294 -0.11721949 8.3739564e-039
-0.0025696857 0.051731065 -0.1171541 1.114018e-038
-0.00070091058 0.051732734 -0.11708872 1.1601875e-038
0.0013858546 0.050906289 -0.11645231 8.928191e-039
0.0032568332 0.050907955 -0.11638685 8.8359954e-039
0.0051275291 0.050909624 -0.11632139 8.5666252e-039
0.0069980021 0.050911289 -0.11625598 1.6038071e-038
0.0090972455 0.050084792 -0.11561909 1.3734573e-038
0.01212848 0.045945883 -0.11269594 1.1247442e-038
0.01635842 0.037666436 -0.10691376 4.7937734e-039
0.015663007 0.046777304 -0.11313575 2.3030803e-039
0.0165866 0.050091401 -0.11535717 9.40718e-039
0.018215898 0.050921187 -0.11586365 1.2355946e-038
0.021555847 0.045954164 -0.11236629 1.2538166e-038
0.025919385 0.0376748 -0.10657948 3.0409816e-039
0.029083755 0.033535969 -0.10365172 2.0268493e-039
0.028326264 0.048444949 -0.11382002 1.5687564e-039
0.029685019 0.050102711 -0.11489941 6.8264199e-039
0.031294186 0.050932411 -0.11540668 1.2912726e-038
0.033689875 0.049277771 -0.11419614 9.9606551e-039
0.035562795 0.049279325 -0.11413077 1.595484e-038
0.03743552 0.049280867 -0.11406542 1.1803491e-038
0.041212797 0.043485858 -0.10998952 9.8626945e-039
0.046126746 0.034378503 -0.10362018 5.619574e-039
0.043885529 0.046801157 -0.11215011 8.3046692e-040
0.044645213 0.050114952 -0.11437746 1.5034702e-038
0.046514757 0.050116416 -0.11431233 1.0700751e-038
0.049240835 0.047633681 -0.11252701 9.8706203e-039
0.050830066 0.048463173 -0.11303514 1.8654085e-040
0.052704781 0.048464585 -0.11296989 1.5953421e-038
0.05487306 0.047637921 -0.11233099 1.3089181e-038
0.057639305 0.045155101 -0.11054434 8.2071333e-039
0.058029711 0.049296755 -0.11334817 5.3494821e-039
0.060203314 0.048470031 -0.11270918 1.3372301e-038
0.062686674 0.046815202 -0.11149593 1.1895701e-038
0.06610202 0.042676222 -0.10855988 3.5030318e-039
0.06892474 0.040193368 -0.10677145 1.5662257e-039
0.070826367 0.040194619 -0.1067055 2.4878275e-039
0.072722867 0.045165312 -0.11002088 1.5698312e-039
0.07268548 0.050134733 -0.11340331 7.1051676e-039
0.07423193 0.050963938 -0.11391336 1.5765765e-038
0.077076666 0.048480883 -0.11212436 1.3733833e-038
0.083223447 0.037717421 -0.10458579 1.0783219e-038
0.086790211 0.033578288 -0.10164484 2.0275556e-039
-0.11648634 0.040544275 -0.11587478 4.8877837e-039
-0.11456852 0.040545039 -0.11580893 7.1948114e-039
-0.1123855 0.036396336 -0.11292727 2.4924938e-039
-0.1109008 0.043036375 -0.11736687 1.1092076e-039
-0.10922575 0.046356823 -0.11955456 1.1081328e-039
-0.10745016 0.048017472 -0.12061607 1.4349296e-042
-0.10549378 0.047188479 -0.1199874 1.4349296e-042
-0.10359885 0.047189403 -0.1199221 1.4349296e-042
-0.10149597 0.044700656 -0.11816561 5.5495903e-040
-0.099593297 0.044701636 -0.11809999 1.6598647e-039
-0.097840495 0.046362448 -0.11916216 2.2130384e-039
-0.096021242 0.047193363 -0.11966066 2.0286472e-039
-0.093645841 0.042215101 -0.11621069 2.3974269e-039
-0.091984853 0.044705819 -0.11783721 3.1342717e-039
-0.090254709 0.046366725 -0.11890002 4.6094017e-039
-0.08818204 0.044708062 -0.11770567 5.8994301e-039
-0.08637213 0.045539089 -0.11820433 1.2903703e-039
-0.084849417 0.048859797 -0.12039684 7.0979747e-039
-0.08305902 0.04969091 -0.12089615 1.1801392e-038
-0.080976486 0.048032343 -0.11970132 9.8652841e-039
-0.079087332 0.048033588 -0.11963581 7.371965e-040
-0.077303141 0.048864715 -0.1201352 1.6688115e-038
-0.075524651 0.049695913 -0.12063479 1.4753082e-038
-0.073421486 0.048037451 -0.11943914 1.1895373e-038
-0.071533404 0.048038781 -0.11937355 7.2848715e-039
-0.069530062 0.047210272 -0.11874264 1.6320043e-038
-0.067876369 0.048871357 -0.11980771 1.5305538e-038
-0.065991856 0.048872743 -0.11974218 1.5489562e-038
-0.063860252 0.047214448 -0.11854544 1.4752716e-038
-0.061970893 0.047215879 -0.11847967 6.3618502e-039
-0.060340047 0.048877019 -0.11954544 1.6872152e-038
-0.058852136 0.051368054 -0.12117749 8.2983017e-039
-0.056842703 0.05053968 -0.1205462 1.217158e-038
-0.055102602 0.051371016 -0.1210468 1.6587857e-039
-0.0533682 0.052202359 -0.1215476 2.2108846e-039
-0.051639538 0.053033706 -0.12204859 1.4567239e-038
-0.049771212 0.053035237 -0.12198341 9.7712346e-039
-0.047607072 0.051377133 -0.12078532 1.3908878e-038
-0.045583189 0.050548866 -0.1201534 1.8524423e-038
-0.04340069 0.048890758 -0.11895461 1.1795941e-038
-0.041676253 0.049722232 -0.11945567 1.5026034e-038
-0.039957512 0.050553653 -0.1199569 1.0879e-038
-0.03808289 0.050555274 -0.11989138 1.5940371e-038
-0.036537178 0.052216541 -0.12095987 1.7318984e-038
-0.034668598 0.05221818 -0.12089453 1.4552747e-038
-0.032800298 0.052219827 -0.12082919 1.6212988e-038
-0.030759923 0.051391676 -0.12019656 1.7227495e-038
-0.028889526 0.051393349 -0.12013112 1.9070335e-038
-0.027019456 0.051395029 -0.12006568 1.5198839e-038
-0.024969149 0.050566915 -0.11943266 1.4184684e-038
-0.022913733 0.049738813 -0.11879947 1.7319336e-038
-0.021039138 0.049740527 -0.11873384 1.8241292e-038
-0.019164855 0.049742237 -0.11866821 1.9347642e-038
-0.017673489 0.051403537 -0.11973849 1.5015168e-038
-0.015999204 0.052235048 -0.12024111 1.732006e-038
-0.014330596 0.053066548 -0.12074391 1.8333133e-038
-0.012268838 0.05223849 -0.12011044 1.99923e-038
-0.010201989 0.051410444 -0.11947677 1.8333858e-038
-0.0085396189 0.052241959 -0.11997979 1.6212293e-038
-0.006882953 0.053073462 -0.12048301 1.1601108e-038
-0.0048115025 0.052245431 -0.11984918 9.3884601e-039
-0.0029478236 0.052247163 -0.11978388 1.150967e-038
-0.00086883735 0.051419135 -0.11914978 1.0865021e-038
0.00099698547 0.051420875 -0.1190844 9.3909782e-039
0.0026415591 0.052252375 -0.11958804 8.6512524e-039
0.0047278721 0.051424343 -0.1189537 7.824377e-039
0.0061401911 0.053085592 -0.12002672 1.0315825e-038
0.0079996251 0.05308732 -0.11996157 1.7790131e-038
0.010322409 0.051429536 -0.1187577 1.1799183e-038
0.013828074 0.045622904 -0.11470609 5.3483639e-039
0.01642256 0.043135397 -0.11293147 2.2123042e-039
0.016634425 0.048945405 -0.11685286 2.7981268e-040
0.018021103 0.050606649 -0.11792684 1.5307647e-038
0.020377794 0.048948828 -0.11672178 1.1712006e-038
0.023984773 0.043142304 -0.1126667 2.3970499e-039
0.027629204 0.037335757 -0.10861028 2.3956304e-039
0.03055124 0.034018483 -0.10626296 2.210886e-039
0.02991035 0.042317655 -0.11189809 1.569111e-039
0.029732924 0.048957217 -0.11639444 4.6168861e-040
0.031342015 0.049788639 -0.11689947 1.7149765e-038
0.033473797 0.048960499 -0.11626364 1.2722202e-038
0.035344008 0.04896212 -0.11619826 5.8122427e-039
0.036944594 0.0497935 -0.11670364 1.576612e-038
0.039356213 0.048135605 -0.11549681 1.23527e-038
0.044252131 0.039010216 -0.10915171 8.2964478e-039
0.044488899 0.043990135 -0.11251117 2.3970752e-039
0.044413041 0.049799763 -0.11644288 3.0471193e-039
0.045996994 0.05063099 -0.1169489 1.4939261e-038
0.049003553 0.047313627 -0.11459886 1.2538887e-038
0.050590061 0.048144829 -0.11510484 7.3647763e-040
0.052171115 0.048976004 -0.11561104 1.7333462e-038
0.053453065 0.050636895 -0.11668903 1.318246e-038
0.057095218 0.045660038 -0.1131943 1.2444172e-038
0.058078039 0.048150592 -0.11484406 7.097609e-039
0.059950024 0.048151977 -0.11477894 1.4846721e-038
0.061517537 0.04898303 -0.11528577 1.345978e-038
0.065843888 0.04234679 -0.11064477 1.216903e-038
0.073725462 0.041522197 -0.10980985 1.7535008e-039
0.072734043 0.048990648 -0.11489647 3.5873241e-042
0.073957197 0.050651219 -0.11597688 1.5496384e-038
0.076473556 0.048992958 -0.11476699 1.2816563e-038
0.081629992 0.040697213 -0.10897476 1.3273933e-038
0.085515022 0.035720207 -0.10547211 2.3963325e-039
0.089098491 0.031572863 -0.10254131 2.1193967e-039
-0.11653151 0.041040502 -0.11851935 4.9806996e-039
-0.11466961 0.041872848 -0.11901453 6.3647102e-039
-0.11249445 0.037715901 -0.1161439 1.2939534e-039
-0.10990121 0.027738083 -0.10934469 1.1092048e-039
-0.10800449 0.028570525 -0.10983855 1.016656e-039
-0.10599081 0.027739927 -0.10921003 1.3843638e-039
-0.10416396 0.029404026 -0.11026542 1.3843638e-039
-0.10234818 0.03106809 -0.1113211 1.3843638e-039
-0.10061295 0.033563763 -0.11293872 1.2914479e-039
-0.098966427 0.036891006 -0.11511851 1.3836407e-039
-0.097042285 0.036892071 -0.11505204 1.6595073e-039
-0.095118351 0.036893163 -0.11498557 1.567669e-039
-0.093435653 0.039388873 -0.11660482 3.4119348e-039
-0.092018619 0.044379234 -0.11991069 3.596326e-039
-0.090205625 0.045211971 -0.12040712 3.595247e-039
-0.088132858 0.043550052 -0.11921701 1.9364487e-039
-0.086049475 0.041888207 -0.11802655 1.6598647e-039
-0.084425017 0.044384006 -0.11964765 1.6595073e-039
-0.082817122 0.04687988 -0.12126932 1.3836407e-039
-0.080331706 0.041891985 -0.11782824 1.3836407e-039
-0.078426309 0.041893296 -0.11776209 1.4751161e-039
-0.076835476 0.044389173 -0.11938422 2.1208428e-039
-0.075153723 0.046053596 -0.12044409 2.7837635e-040
-0.072932124 0.043560389 -0.11868942 1.8654085e-040
-0.071033232 0.043561783 -0.11862338 1.2921555e-039
-0.069712728 0.047720786 -0.1213731 9.3629158e-041
-0.068064645 0.049385272 -0.12243401 9.2911693e-041
-0.066064537 0.048555221 -0.12180524 9.2911693e-041
-0.063440531 0.043567572 -0.11835904 4.6168861e-040
-0.061669536 0.044400569 -0.11885643 1.8582339e-040
-0.060033437 0.046065129 -0.11991766 1.0145037e-039
-0.058408458 0.047729652 -0.12097921 4.0569482e-039
-0.055987079 0.04440517 -0.11865824 2.8576848e-039
-0.054230809 0.045238279 -0.11915608 1.8435328e-039
-0.052620284 0.046902843 -0.12021808 2.4874729e-039
-0.051020894 0.048567466 -0.12128047 4.9774738e-039
-0.049578052 0.051063523 -0.12290738 4.9774542e-039
-0.047855496 0.051896617 -0.12340628 1.3076949e-038
-0.045836966 0.051066775 -0.12277661 1.7044241e-038
-0.044120423 0.051899888 -0.12327569 1.6131302e-038
-0.042097084 0.051070075 -0.12264582 1.4473224e-038
-0.040386558 0.051903214 -0.12314507 1.5578839e-038
-0.038358428 0.051073436 -0.12251498 1.5754901e-038
-0.036818296 0.052738108 -0.1235793 1.8150185e-038
-0.034955148 0.052739818 -0.12351406 1.8885941e-038
-0.033092286 0.052741535 -0.12344882 1.6673249e-038
-0.031057237 0.051911749 -0.1228184 1.5659094e-038
-0.029192276 0.051913489 -0.12275305 1.6581774e-038
-0.027505483 0.052746736 -0.12325308 1.7502652e-038
-0.025463236 0.051916987 -0.12262238 1.685764e-038
-0.023232596 0.050255854 -0.121426 1.7411531e-038
-0.021177441 0.049426187 -0.12079486 1.4830057e-038
-0.019305842 0.049427971 -0.12072923 1.6304829e-038
-0.017817333 0.051092643 -0.12179519 1.7503372e-038
-0.015951736 0.051094435 -0.12172976 1.7227509e-038
-0.014283233 0.051927667 -0.12223032 1.5382876e-038
-0.01222139 0.051098034 -0.12159891 1.5198485e-038
-0.010558859 0.051931262 -0.12209966 1.7964351e-038
-0.0089020003 0.052764546 -0.12260064 1.6858728e-038
-0.0072507723 0.053597778 -0.12310179 1.5290731e-038
-0.0051846569 0.052768156 -0.12247021 9.3888174e-039
-0.0033264025 0.052769963 -0.12240501 9.5735604e-039
-0.0012527243 0.051940307 -0.12177312 1.1695502e-038
0.00038934709 0.052773569 -0.12227463 9.8515892e-039
0.002246812 0.052775383 -0.12220944 7.5477859e-039
0.0041040541 0.052777186 -0.12214428 7.6392613e-039
0.0055081369 0.054441802 -0.12321317 8.9314476e-039
0.0073594823 0.054443598 -0.12314821 1.0044988e-038
0.00944247 0.053613972 -0.12251606 1.7423871e-038
0.012234235 0.050290115 -0.12018176 8.2972129e-039
0.01433563 0.049460504 -0.11954898 1.2903605e-039
0.015962332 0.050293688 -0.12005101 6.4392467e-040
0.017826069 0.050295465 -0.11998566 1.668809e-038
0.020425523 0.047803026 -0.11821721 1.1799183e-038
0.022792947 0.046142012 -0.11701606 2.028273e-039
0.023416013 0.050300755 -0.1197897 8.8507665e-039
0.025532378 0.049471114 -0.11915646 6.4715326e-040
0.028934369 0.04448447 -0.11568262 1.568032e-039
0.030039473 0.046980396 -0.11732123 4.6025368e-040
0.031651255 0.04781349 -0.11782389 1.6503333e-038
0.033521622 0.047815192 -0.11775842 1.2172629e-038
0.035925552 0.046154141 -0.11655608 7.3647763e-040
0.036722872 0.049481332 -0.11876464 1.7059049e-038
0.03804303 0.051145725 -0.11983668 1.3554515e-038
0.0410018 0.047821861 -0.11749673 9.86381e-039
0.044537231 0.04283528 -0.11401841 1.7491792e-039
0.045301821 0.046162378 -0.11622821 2.5111268e-042
0.046044849 0.049489446 -0.11843877 1.6416559e-038
0.04876601 0.04699691 -0.11666634 1.308919e-038
0.050349802 0.047829814 -0.11717019 2.2123028e-039
0.051637042 0.049494091 -0.11824358 1.1343997e-038
0.052913532 0.05115829 -0.11931734 1.3646345e-038
0.056847163 0.045340303 -0.11526619 1.2264105e-038
0.058724552 0.045341775 -0.11520077 1.8435258e-039
0.059696473 0.047837254 -0.11684438 2.027201e-039
0.060652252 0.050332729 -0.11848862 1.6228557e-038
0.06374234 0.047008712 -0.11614443 1.2264837e-038
0.067163818 0.042853359 -0.11322957 3.5051912e-039
0.071550041 0.036203951 -0.10860366 2.3970612e-039
0.073141858 0.037036665 -0.10910759 2.2126811e-039
0.074065149 0.044521227 -0.11410829 1.754577e-039
0.074975684 0.047016472 -0.11575438 5.7211443e-039
0.075870067 0.049511686 -0.11740105 1.291094e-038
0.080035768 0.043693487 -0.11334223 1.3738861e-038
0.083907813 0.038706638 -0.10985287 6.6369265e-039
0.08747822 0.034551103 -0.10693321 2.3970584e-039
-0.11652925 0.040710203 -0.12059648 3.3211783e-039
-0.11456919 0.039877824 -0.11997208 6.6409426e-039
-0.11244422 0.036545839 -0.11767095 1.0162889e-039
-0.11018582 0.031547446 -0.11425116 1.2928758e-039
-0.1084815 0.034881227 -0.11642045 1.1077769e-039
-0.10643088 0.033215791 -0.11523578 1.1077769e-039
-0.10462597 0.034883182 -0.11628751 1.3843638e-039
-0.10249808 0.032384612 -0.11454311 1.1999725e-039
-0.10049315 0.031552427 -0.11391684 1.1999725e-039
-0.098627493 0.032386757 -0.1144094 1.3836435e-039
-0.096842445 0.03405425 -0.11546168 1.3836435e-039
-0.095301546 0.03822137 -0.11819332 1.4754734e-039
-0.093627267 0.040722139 -0.11980635 3.1349919e-039
-0.091886386 0.042389691 -0.12086003 3.1353479e-039
-0.089899115 0.041557711 -0.1202342 4.0573028e-039
-0.087729551 0.039059348 -0.11848802 4.425365e-039
-0.08572647 0.038227439 -0.11786157 3.8721912e-039
-0.083342291 0.034062799 -0.11499391 3.2264645e-039
-0.081124611 0.031564549 -0.11324598 2.4888995e-039
-0.078791507 0.028233223 -0.11093704 1.8435328e-039
-0.07674329 0.027401384 -0.11030886 1.9357285e-039
-0.075004466 0.029069189 -0.11136238 2.1197638e-039
-0.072954096 0.028237469 -0.11073408 2.0275682e-039
-0.071008869 0.028238934 -0.11066637 1.9371718e-039
-0.069063909 0.028240427 -0.11059865 3.2279106e-039
-0.067234926 0.02907509 -0.1110919 1.7527806e-039
-0.065648437 0.031576097 -0.11270749 1.8449762e-039
-0.063715197 0.031577647 -0.11264008 1.3836407e-039
-0.061534595 0.029912908 -0.11145011 1.3836435e-039
-0.059849575 0.031580806 -0.11250522 1.1999725e-039
-0.059080426 0.039080866 -0.11749101 1.1999725e-039
-0.057304703 0.03991567 -0.11798599 1.4758391e-039
-0.055669371 0.04158359 -0.11904275 1.6591528e-039
-0.054045167 0.043251511 -0.12009988 1.5669572e-039
-0.052712262 0.046585783 -0.12228109 1.7513484e-039
-0.050972968 0.047420632 -0.12277725 2.118689e-039
-0.049384862 0.049088575 -0.12383557 2.0264934e-039
-0.048104305 0.052422844 -0.12601855 9.2058401e-039
-0.046543878 0.054090805 -0.12707779 1.5104165e-038
-0.044687349 0.054092508 -0.12701279 1.6397748e-038
-0.042674784 0.05326109 -0.12638536 1.5843499e-038
-0.0404981 0.051596571 -0.12519522 1.7134607e-038
-0.038957819 0.053264566 -0.12625511 1.418361e-038
-0.03709979 0.053266324 -0.12618998 1.4920449e-038
-0.035409197 0.054101214 -0.12668763 1.7134227e-038
-0.033384617 0.053269871 -0.1260597 1.7871435e-038
-0.031354945 0.052438553 -0.12543157 1.7318981e-038
-0.029320166 0.051607244 -0.12480325 1.4552403e-038
-0.02799207 0.054108385 -0.12642741 1.5382873e-038
-0.025957871 0.053277098 -0.12579909 1.6950189e-038
-0.023735231 0.051612716 -0.12460722 1.870227e-038
-0.021688107 0.050781414 -0.12397838 1.713459e-038
-0.019824643 0.050783269 -0.12391294 1.6120441e-038
-0.018344386 0.052451354 -0.12497483 1.6397028e-038
-0.016292736 0.051620118 -0.12434585 1.8240583e-038
-0.014432846 0.051621985 -0.12428051 1.9715713e-038
-0.01237366 0.05079072 -0.12365121 1.6304829e-038
-0.010916144 0.052458812 -0.12471387 1.685836e-038
-0.0090597831 0.052460682 -0.12464865 1.8242015e-038
-0.0072036916 0.052462555 -0.12458342 1.43666e-038
-0.0053478521 0.052464429 -0.1245182 9.9423443e-039
-0.0037053372 0.053299379 -0.1250174 7.8214889e-039
-0.0018527601 0.053301264 -0.12495229 7.3630303e-039
-4.0605664e-007 0.053303134 -0.1248872 1.0589877e-038
0.0020728374 0.052471939 -0.12425743 6.9016962e-039
0.0039273659 0.052473813 -0.12419227 7.3626758e-039
0.005555138 0.053308748 -0.12469199 9.6693644e-039
0.0074065099 0.053310603 -0.12462695 1.0593477e-038
0.0099534001 0.050813254 -0.12286668 2.2112392e-039
0.012516195 0.04831598 -0.12110589 1.7700827e-038
0.014383055 0.048317846 -0.12104032 1.6317892e-038
0.016249677 0.048319701 -0.12097476 5.0693037e-039
0.018844193 0.045822389 -0.11921285 1.4290992e-038
0.021945415 0.041659001 -0.11631933 7.9302115e-039
0.023832992 0.041660856 -0.11625306 1.2907192e-039
0.023714202 0.048327059 -0.12071271 1.179995e-038
0.024819514 0.050827965 -0.1223447 1.5582125e-038
0.027189229 0.049163707 -0.1211477 3.7814375e-039
0.029051846 0.049165498 -0.12108237 1.5673019e-039
0.031437375 0.047501232 -0.11988486 1.2908055e-038
0.034361985 0.044170871 -0.11755454 9.8634302e-039
0.037307981 0.040840521 -0.11522351 1.9364375e-039
0.037309699 0.046673428 -0.11912208 1.105972e-039
0.038090523 0.050007261 -0.12132253 1.7058327e-038
0.039674655 0.050841961 -0.12182402 1.4477912e-038
0.041530993 0.050843641 -0.12175903 2.6754431e-039
0.043667611 0.050012305 -0.12112732 4.6061241e-040
0.045526467 0.050013945 -0.12106232 1.5860506e-038
0.048528228 0.046683524 -0.11872949 1.3550535e-038
0.050974596 0.045019139 -0.11753006 3.5955903e-039
0.051102631 0.050018761 -0.12086744 4.6348227e-040
0.052373596 0.051686347 -0.12193705 1.6688104e-038
0.054523349 0.050854839 -0.12130501 1.2445262e-038
0.057875235 0.046691369 -0.11840313 7.0950558e-039
0.059140813 0.048358876 -0.11947303 6.4464214e-040
0.060700215 0.04919333 -0.11997567 1.5860494e-038
0.062868789 0.048361786 -0.11934315 1.2818013e-038
0.065972656 0.045031227 -0.11700704 1.0329803e-038
0.066284239 0.049197558 -0.11978131 3.0409998e-039
0.068145685 0.049198911 -0.11971658 5.7164724e-039
0.072233431 0.043369308 -0.11567529 1.1081286e-039
0.074113876 0.043370612 -0.11560999 1.8467698e-039
0.074700803 0.046703815 -0.11781783 7.4150269e-040
0.075592391 0.049204003 -0.11945808 1.576865e-038
0.079427093 0.044207338 -0.11598283 1.2820138e-038
0.083294287 0.039210606 -0.11250645 2.7658325e-039
0.086525492 0.035879895 -0.11016633 2.9502321e-039
-0.11638363 0.037878681 -0.1209997 4.6119171e-039
-0.1146204 0.040384173 -0.12260355 7.0090048e-039
-0.11266051 0.039550208 -0.12198123 1.1084845e-039
-0.11047132 0.03537681 -0.11913162 1.2925199e-039
-0.10860749 0.036212634 -0.11962219 1.0155813e-039
-0.10674928 0.037048481 -0.12011292 1.1077783e-039
-0.10489671 0.037884347 -0.1206038 1.0155813e-039
-0.10304977 0.038720299 -0.12109488 1.3836435e-039
-0.10086048 0.035381947 -0.11879987 1.4758391e-039
-0.098866612 0.034548227 -0.1181761 1.4751189e-039
-0.096792489 0.032879643 -0.11699466 1.5673145e-039
-0.095251992 0.037055083 -0.11971547 1.4751161e-039
-0.093417034 0.037891123 -0.12020671 1.4754734e-039
-0.091837287 0.041231763 -0.12237126 1.4754706e-039
-0.090021789 0.042067844 -0.12286312 2.1211959e-039
-0.088034749 0.0412343 -0.12223934 3.0431508e-039
-0.085951164 0.039565932 -0.1210574 3.5956043e-039
-0.08385697 0.037897561 -0.11987498 4.0565825e-039
-0.081848949 0.037064105 -0.11925039 4.1487781e-039
-0.07983575 0.036230668 -0.11862559 3.6874454e-039
-0.07791958 0.036232095 -0.11855891 2.3967066e-039
-0.076003671 0.036233548 -0.11849222 2.7654891e-039
-0.074088044 0.036235023 -0.11842551 1.9364487e-039
-0.071952015 0.034566887 -0.11724149 2.9506007e-039
-0.070144564 0.035403226 -0.11773328 2.3974269e-039
-0.068227045 0.035404768 -0.11766641 2.12084e-039
-0.066546746 0.037075974 -0.11871736 2.0286472e-039
-0.064271703 0.034573138 -0.11697357 2.2126811e-039
-0.062352348 0.034574755 -0.11690654 1.6602304e-039
-0.060180053 0.032906733 -0.11572105 1.1992522e-039
-0.058385178 0.033743203 -0.1162131 1.1992522e-039
-0.05646399 0.03374489 -0.11614593 1.2914479e-039
-0.054812588 0.035416234 -0.11719777 1.2910905e-039
-0.053996935 0.042096365 -0.1216075 1.4747615e-039
-0.052243892 0.042932928 -0.12210096 1.6591528e-039
-0.05035371 0.04293466 -0.12203477 1.3832862e-039
-0.04860938 0.0437712 -0.12252845 1.6591528e-039
-0.04805696 0.051286135 -0.12750211 3.8642711e-039
-0.046647668 0.053792242 -0.12911703 1.3261708e-038
-0.044793867 0.053794004 -0.12905206 1.4367649e-038
-0.042627603 0.05212624 -0.12786651 1.5474714e-038
-0.040609896 0.051293258 -0.12724096 1.8055471e-038
-0.038910665 0.052129846 -0.12773609 1.8793037e-038
-0.037217181 0.052966446 -0.12823142 1.4921898e-038
-0.035529375 0.053803045 -0.1287269 1.5751658e-038
-0.033507466 0.052970134 -0.12810113 1.4552038e-038
-0.031653054 0.052971989 -0.12803599 1.8240583e-038
-0.029798931 0.052973855 -0.12797084 1.7318627e-038
-0.028123144 0.053810488 -0.1284667 1.78718e-038
-0.0260916 0.052977625 -0.12784055 1.529068e-038
-0.02387153 0.051310018 -0.12665297 1.4645308e-038
-0.022013176 0.051311921 -0.12658763 1.6857649e-038
-0.020155136 0.05131384 -0.1265223 1.8608645e-038
-0.018871939 0.053819988 -0.12814142 1.9068565e-038
-0.016634118 0.052152433 -0.1269532 1.5104857e-038
-0.014779622 0.052154362 -0.12688796 1.5746981e-038
-0.012925409 0.052156303 -0.12682271 1.639487e-038
-0.011273811 0.052992973 -0.12731935 1.8056546e-038
-0.0090128053 0.051325452 -0.12613028 1.7317906e-038
-0.0073644547 0.052162126 -0.12662704 1.0031976e-038
-0.0055113141 0.052164074 -0.12656181 1.0406932e-038
-0.0040846998 0.053835463 -0.12762111 1.2805463e-038
-0.0020216769 0.053002685 -0.12699378 7.9172929e-039
-0.0001720367 0.053004634 -0.12692866 1.0129631e-038
0.0021197658 0.051337149 -0.12573852 1.0775357e-038
0.0035265004 0.053008515 -0.12679851 8.5608644e-039
0.0058286088 0.051341034 -0.12560801 8.7495759e-039
0.0076826876 0.051342968 -0.12554277 3.0363265e-039
0.010928389 0.046336666 -0.12210003 2.5778665e-039
0.012328824 0.048007999 -0.12316027 7.3576017e-040
0.013718255 0.04967932 -0.1242209 4.0562392e-039
0.015576817 0.049681243 -0.12415554 5.9001518e-039
0.017920684 0.048013788 -0.12296359 1.5676774e-039
0.020275123 0.046346322 -0.12177131 5.5388284e-040
0.021399438 0.04885228 -0.12339606 1.4769153e-039
0.022507373 0.05135826 -0.12502143 1.0761972e-042
0.023852549 0.053029492 -0.12608367 1.5687564e-039
0.026211651 0.051361993 -0.12489127 1.4015165e-038
0.028581372 0.049694441 -0.12369848 1.4289954e-038
0.030961683 0.048026942 -0.12250537 9.7723682e-039
0.033352584 0.046359446 -0.1213119 9.2086749e-040
0.038157046 0.037179802 -0.11504067 2.3041565e-039
0.03816634 0.043024372 -0.11892385 2.1208428e-039
0.038410265 0.048034173 -0.12224402 1.8582339e-040
0.039446916 0.050539959 -0.12387206 9.6823264e-039
0.04157836 0.049706995 -0.12324253 1.696578e-038
0.044275917 0.047204766 -0.12148365 1.5489927e-038
0.04670649 0.045537129 -0.12028892 1.46598e-038
0.050290938 0.04053089 -0.11683463 9.4046465e-039
0.052023798 0.046376843 -0.1206577 1.9382592e-039
0.053302757 0.048047744 -0.12172262 1.6318258e-038
0.054867536 0.048883978 -0.12222277 1.4659448e-038
0.058521774 0.043877676 -0.1187662 1.5857634e-038
0.060094576 0.044713873 -0.11926612 5.4398855e-039
0.061357342 0.046384715 -0.12033177 8.4855755e-039
0.062609427 0.048055463 -0.12139779 1.2908805e-038
0.065090843 0.046387672 -0.12020164 1.3737124e-038
0.066332243 0.048058353 -0.12126812 3.1339171e-039
0.067878351 0.048894376 -0.12176917 1.5857283e-038
0.069737226 0.048895743 -0.12170451 1.2078337e-038
0.071275428 0.049731687 -0.12220592 2.1219162e-039
0.073455289 0.04889838 -0.12157533 9.2301848e-040
0.075640641 0.048065029 -0.12094458 1.3186087e-038
0.080133557 0.04138926 -0.11634951 1.2355216e-038
0.082680345 0.039721236 -0.11515144 1.8428126e-039
0.085238069 0.038053147 -0.11395299 2.1204855e-039
-0.11614197 0.033367671 -0.12030281 1.016656e-039
-0.11441875 0.036714621 -0.12245414 5.7179129e-039
-0.11250405 0.036715545 -0.12238818 1.0159358e-039
-0.11030912 0.032533925 -0.11954913 1.4769111e-039
-0.10855757 0.035044502 -0.12114673 1.2914479e-039
-0.10663797 0.035045531 -0.12108047 1.2914479e-039
-0.10491128 0.037556149 -0.12267885 1.3836435e-039
-0.10300023 0.037557244 -0.12261279 1.1070566e-039
-0.10095004 0.035885323 -0.12143652 1.2910905e-039
-0.098961607 0.035049979 -0.12081505 1.3832862e-039
-0.096892826 0.03337818 -0.11963809 1.5669572e-039
-0.095435999 0.03839843 -0.12290357 1.4751189e-039
-0.093609296 0.039236169 -0.12339289 1.5673145e-039
-0.09203802 0.042583458 -0.12554903 1.4751189e-039
-0.089714959 0.038402241 -0.1227051 1.6595073e-039
-0.087719738 0.037567094 -0.12208314 1.567669e-039
-0.085810743 0.037568454 -0.1220168 1.7520575e-039
-0.083996102 0.038406327 -0.12250636 2.0279241e-039
-0.082090311 0.038407743 -0.12244006 2.4889023e-039
-0.08008524 0.037572712 -0.1218176 3.042076e-039
-0.078074977 0.036737647 -0.12119493 4.7015974e-039
-0.076374501 0.038412154 -0.12224099 3.4119348e-039
-0.074469775 0.038413677 -0.12217458 3.1342689e-039
-0.07256531 0.038415223 -0.12210814 2.8580393e-039
-0.070434883 0.036743805 -0.1209285 2.9509552e-039
-0.068409733 0.035908941 -0.12030517 3.5030514e-039
-0.066616505 0.036747031 -0.12079515 2.304511e-039
-0.06446524 0.03507575 -0.11961471 2.7651332e-039
-0.062551335 0.035077427 -0.11954781 2.3048767e-039
-0.060384385 0.033406213 -0.11836676 1.4751189e-039
-0.058724407 0.035080843 -0.11941392 1.2914479e-039
-0.056811381 0.035082582 -0.11934695 1.4758391e-039
-0.055572674 0.039266646 -0.12206669 1.3832862e-039
-0.05422385 0.042614255 -0.12422993 1.3832862e-039
-0.052476313 0.043452475 -0.1247213 1.2910905e-039
-0.050591566 0.043454271 -0.12465521 1.8435441e-039
-0.048270229 0.040946707 -0.12291592 1.5687564e-039
-0.048009723 0.050149515 -0.12898557 2.7626095e-039
-0.046600673 0.05266064 -0.13059396 8.1949279e-039
-0.044900671 0.053498954 -0.1310869 1.3905602e-038
-0.042893425 0.052664317 -0.13046376 1.556331e-038
-0.040721931 0.050993331 -0.12928225 1.4643873e-038
-0.039025519 0.051831637 -0.12977524 1.6303394e-038
-0.037170231 0.051833529 -0.12971003 1.6211559e-038
-0.035649803 0.053508308 -0.1307618 1.9069623e-038
-0.033460565 0.051837347 -0.1295796 1.6119363e-038
-0.031606175 0.051839277 -0.12951435 1.344641e-038
-0.029752094 0.051841218 -0.12944911 1.5659105e-038
-0.028076373 0.052679565 -0.12994274 1.8240583e-038
-0.025863992 0.051008713 -0.12875967 1.9439484e-038
-0.023824589 0.050174281 -0.12813528 1.6120441e-038
-0.022152442 0.051012658 -0.12862898 1.6397025e-038
-0.020863807 0.053523883 -0.13024141 1.5380736e-038
-0.019400049 0.055198658 -0.13129503 1.9067847e-038
-0.017170187 0.053527851 -0.13011131 1.9345496e-038
-0.015126813 0.052693408 -0.12948669 1.7041317e-038
-0.013278009 0.052695412 -0.12942156 1.7502295e-038
-0.011429489 0.052697413 -0.12935643 1.6765453e-038
-0.0093761515 0.051863052 -0.12873147 1.5013033e-038
-0.0073176748 0.051028684 -0.12810636 7.6352605e-039
-0.0056750444 0.051867083 -0.12860104 9.3945796e-039
-0.0042512729 0.05354188 -0.12965606 9.0240006e-039
-0.0019749803 0.051871113 -0.12847063 7.5485132e-039
-0.00012534251 0.051873125 -0.12840545 5.8889918e-039
0.0021665876 0.050202414 -0.12721951 1.0315461e-038
0.0037971712 0.051040795 -0.12771465 9.1154787e-039
0.0061021028 0.049370088 -0.12652825 7.8251001e-039
0.0084175766 0.047699355 -0.12534146 9.1978989e-040
0.011671797 0.042683221 -0.12191126 8.9418873e-039
0.012610687 0.046030678 -0.12408857 7.3647763e-040
0.015189875 0.04352361 -0.12233991 8.6660207e-039
0.015863933 0.047707375 -0.12507914 4.0565965e-039
0.017967846 0.046873018 -0.12445247 1.263151e-038
0.019340346 0.04854767 -0.12550932 1.6595922e-038
0.020950112 0.049386021 -0.12600528 5.546045e-040
0.02305611 0.048551593 -0.12537853 1.5582492e-038
0.024660148 0.04938991 -0.12587473 9.0366025e-039
0.026258597 0.050228167 -0.12637109 6.5473204e-039
0.027592529 0.051902726 -0.12742938 4.6101332e-039
0.030223904 0.049395666 -0.12567906 1.3553109e-038
0.03207821 0.049397551 -0.12561387 1.0878361e-038
0.035267618 0.04521782 -0.12273872 1.105979e-039
0.036325879 0.047728617 -0.12435938 1.7520687e-039
0.037640292 0.04940312 -0.12541848 1.9375376e-039
0.039218955 0.050241251 -0.12591569 7.7465825e-039
0.040514354 0.051915657 -0.12697548 1.0761972e-042
0.043201402 0.049408529 -0.12522334 1.0761972e-042
0.045621369 0.047737651 -0.12403321 4.6133268e-040
0.049767304 0.04104894 -0.11946677 3.6841818e-040
0.051070444 0.042723309 -0.12052644 2.3038005e-039
0.051197723 0.047742814 -0.12383788 1.5658824e-039
0.052762467 0.048580773 -0.12433576 9.2051576e-040
0.054321811 0.049418755 -0.1248339 4.5953761e-040
0.057073105 0.046911478 -0.12307971 1.0134289e-039
0.058330402 0.048585638 -0.1241411 1.8442559e-039
0.060795832 0.046914652 -0.12294966 3.6881657e-039
0.061735034 0.049425058 -0.12457496 1.4747615e-039
0.064828739 0.04608142 -0.12225627 5.0700366e-039
0.065441802 0.049428038 -0.12444568 1.8424693e-039
0.068241715 0.046920631 -0.12269003 9.2159056e-040
0.069785163 0.047758311 -0.12318902 8.8511322e-039
0.07164418 0.047759693 -0.12312432 1.6872864e-038
0.074150436 0.046088502 -0.12193177 1.6872141e-038
0.076667547 0.044417247 -0.12073884 1.0695388e-038
0.082484849 0.034383316 -0.113904 4.7019519e-039
0.084055841 0.035220835 -0.11440224 2.5818182e-039
0.084952973 0.037730869 -0.11602945 2.1212085e-039
-0.10634182 0.03052485 -0.12039427 1.6595101e-039
-0.10454022 0.032202329 -0.12143303 1.6602304e-039
-0.10274968 0.033879779 -0.12247209 1.3836435e-039
-0.10090049 0.03471911 -0.12295856 1.0145037e-039
-0.099129409 0.036396656 -0.12399825 1.1066993e-039
-0.09706869 0.034721535 -0.12282581 1.2914479e-039
-0.095542587 0.0389136 -0.12552537 1.6595101e-039
-0.093721442 0.039753031 -0.12601267 1.6595101e-039
-0.092072606 0.042268835 -0.12760691 1.5673145e-039
-0.089924052 0.039755691 -0.12588076 1.6595101e-039
-0.087670684 0.03640449 -0.12360048 1.6595101e-039
-0.085395828 0.033053294 -0.12131938 1.5673117e-039
-0.08338207 0.032216612 -0.12069879 1.6595073e-039
-0.081750751 0.034732498 -0.12229344 1.567669e-039
-0.080036364 0.036410309 -0.1233347 1.8442559e-039
-0.078333095 0.038088098 -0.12437626 2.9506035e-039
-0.076535888 0.038927779 -0.12486405 2.5818182e-039
-0.074636631 0.038929354 -0.12479775 4.4260867e-039
-0.072848104 0.039769072 -0.12528577 5.3480416e-039
-0.070612557 0.037256327 -0.12355627 2.2133902e-039
-0.068592794 0.036419857 -0.12293521 4.5175606e-039
-0.066449262 0.034745254 -0.12175928 2.4888995e-039
-0.06441652 0.033908848 -0.12113769 2.5810951e-039
-0.062254608 0.03223436 -0.1199611 3.1349947e-039
-0.06033561 0.032236118 -0.1198939 2.0282898e-039
-0.058675811 0.033914119 -0.12093666 1.5680348e-039
-0.056894995 0.034754034 -0.12142469 1.2921681e-039
-0.054985017 0.034755852 -0.12135772 1.1999725e-039
-0.053763226 0.038948245 -0.12406714 1.0155827e-039
-0.05214797 0.040626332 -0.1251114 1.1077783e-039
-0.050543845 0.042304389 -0.12615597 1.3832862e-039
-0.048513733 0.041468173 -0.12553424 1.2914479e-039
-0.047665775 0.047336742 -0.12935759 2.2098042e-039
-0.04625155 0.049852952 -0.13095924 5.3408417e-039
-0.044700038 0.051531017 -0.13200559 9.201873e-039
-0.042846598 0.051532932 -0.13194039 1.4825421e-038
-0.040993452 0.051534858 -0.1318752 1.3813766e-038
-0.039140593 0.051536798 -0.13180999 1.455133e-038
-0.03728804 0.051538758 -0.1317448 1.5286005e-038
-0.035268448 0.050702661 -0.13112327 1.5288166e-038
-0.03341379 0.050704651 -0.13105793 1.7778524e-038
-0.031386666 0.049868576 -0.13043609 1.7133515e-038
-0.02970534 0.050708648 -0.13092729 1.6304112e-038
-0.027851561 0.050710671 -0.13086195 1.418433e-038
-0.026178937 0.05155075 -0.13135341 1.4276883e-038
-0.023961322 0.049876679 -0.1301744 1.7226065e-038
-0.02229199 0.050716776 -0.13066594 1.9438763e-038
-0.020628316 0.051556874 -0.1311577 1.7316825e-038
-0.019353678 0.05407311 -0.13276404 1.3905233e-038
-0.01712372 0.05239908 -0.13158454 1.6210124e-038
-0.015277332 0.052401144 -0.13151939 1.7963256e-038
-0.013231458 0.051565129 -0.13089675 1.8240921e-038
-0.011585433 0.052405287 -0.13138913 1.5659133e-038
-0.0095347064 0.051569287 -0.1307663 1.482834e-038
-0.0078946082 0.052409444 -0.13125886 8.7452403e-039
-0.0060495744 0.052411519 -0.13119376 7.8254378e-039
-0.004631314 0.054089647 -0.13224453 1.0500203e-038
-0.0021443744 0.051577616 -0.13050549 9.025797e-039
-7.8785699e-005 0.050741691 -0.12988217 6.8134663e-039
0.0022132869 0.049067751 -0.12870044 8.9354077e-039
0.0038438097 0.049907848 -0.12919331 4.6958478e-039
0.005695425 0.049909931 -0.12912798 2.5782294e-039
0.0075468021 0.049912006 -0.12906264 2.3949172e-039
0.0098621808 0.048238084 -0.12788013 1.1247498e-038
0.011718472 0.048240151 -0.12781464 1.7506282e-039
0.014287125 0.045728195 -0.12607272 1.3183607e-038
0.015430462 0.048244279 -0.12768371 2.1208512e-039
0.017529082 0.047408294 -0.12705924 1.8582339e-040
0.018896073 0.049086355 -0.12811193 5.6242851e-039
0.020500418 0.049926367 -0.1286058 6.0863423e-039
0.022350131 0.049928378 -0.12854061 1.4752376e-038
0.023438666 0.052444354 -0.13015358 1.0761972e-042
0.02527998 0.052446332 -0.13008872 1.0236232e-038
0.027121145 0.052448303 -0.13002388 9.0369682e-039
0.029747389 0.049936313 -0.12828007 1.5489941e-038
0.03133186 0.050776228 -0.12877475 2.7622395e-040
0.033445094 0.049940191 -0.12814996 1.0233349e-038
0.03529375 0.049942106 -0.12808493 5.9930677e-039
0.036597341 0.05161991 -0.12914 1.1340414e-038
0.038990777 0.04994588 -0.12795496 1.521371e-038
0.040283386 0.051623631 -0.12901048 8.3901568e-039
0.043248523 0.048273679 -0.12670448 1.6318981e-038
0.044252317 0.050789338 -0.12832065 3.5956268e-039
0.046955604 0.048277304 -0.1265744 9.4986666e-039
0.048520409 0.049117018 -0.12706999 6.4515305e-039
0.050662458 0.048280824 -0.12644443 7.0947433e-039
0.053103864 0.046606641 -0.12525788 9.6769412e-039
0.054369159 0.048284248 -0.1263146 7.4660496e-039
0.056821294 0.04661002 -0.12512775 1.5027167e-038
0.057169549 0.050801352 -0.1278681 3.6013371e-043
0.059319586 0.049965031 -0.12724243 1.7885949e-038
0.060245145 0.052480422 -0.12886168 7.2820142e-039
0.063015617 0.049968157 -0.12711334 1.327473e-038
0.065802284 0.04745587 -0.1253645 1.4748781e-038
0.068289593 0.04578153 -0.1241767 2.1194135e-039
0.069514804 0.047458816 -0.12523511 3.0428075e-039
0.069445647 0.052487798 -0.12854087 9.2194229e-041
0.072580449 0.049137488 -0.12622954 1.1801392e-038
0.074758023 0.048300922 -0.12560327 4.7938042e-039
0.081218034 0.036571413 -0.11767066 1.105979e-039
0.083441675 0.03573475 -0.11704285 2.3052341e-039
0.083998896 0.039087668 -0.11922593 2.3974297e-039
-0.11729115 0.052860446 -0.13766065 4.7037624e-039
-0.11172686 0.052863345 -0.13746868 1.751703e-039
-0.10951881 0.04782543 -0.13410231 1.5680348e-039
-0.10733999 0.043627389 -0.13128527 1.4758391e-039
-0.10545604 0.04362851 -0.13122009 1.5673145e-039
-0.103371 0.04111018 -0.12950286 1.1992522e-039
-0.10133968 0.039431754 -0.12833582 1.1992522e-039
-0.099225171 0.036913514 -0.12661749 1.7513484e-039
-0.097320296 0.036914781 -0.12655142 1.6591528e-039
-0.095493615 0.037755884 -0.12703633 1.5673145e-039
-0.093511231 0.036917407 -0.12641916 1.3829232e-039
-0.091607034 0.036918778 -0.12635297 1.4751189e-039
-0.089444734 0.034400716 -0.12463278 1.3829232e-039
-0.087444052 0.033562366 -0.12401482 1.2914479e-039
-0.085255086 0.031044446 -0.12229364 1.2914479e-039
-0.083332844 0.031045943 -0.12222668 1.2914479e-039
-0.08141087 0.031047475 -0.12215967 1.5680348e-039
-0.079887904 0.034408178 -0.12429982 1.4758363e-039
-0.078079708 0.035249598 -0.12478504 1.3836407e-039
-0.076277196 0.036090985 -0.12527043 1.2917996e-039
-0.074480392 0.036932394 -0.12575597 1.7527778e-039
-0.072689265 0.037773836 -0.12624165 3.0431508e-039
-0.070790589 0.037775513 -0.12617524 2.3977814e-039
-0.068660267 0.036097672 -0.12500408 3.2275435e-039
-0.066638038 0.035259631 -0.12438498 3.5030514e-039
-0.064367905 0.032742038 -0.12266055 2.5810951e-039
-0.062578179 0.033583596 -0.12314613 2.3974297e-039
-0.06066737 0.033585418 -0.12307912 1.8442559e-039
-0.059274916 0.036946345 -0.12522349 1.3836407e-039
-0.057375517 0.0369482 -0.12515683 1.5680348e-039
-0.055611365 0.037789825 -0.12564319 1.1999725e-039
-0.053439975 0.036112212 -0.12447035 1.1077769e-039
-0.051117692 0.033594832 -0.12274387 1.1077783e-039
-0.049049154 0.043675818 -0.12925062 1.9342992e-039
-0.048361007 0.05039575 -0.13361266 2.3949172e-039
-0.046809372 0.052077219 -0.13465467 7.7386568e-039
-0.04496108 0.052079175 -0.1345896 8.8363513e-039
-0.043269671 0.052920885 -0.13507833 8.3746515e-039
-0.041424658 0.052922867 -0.13501333 1.307657e-038
-0.039579954 0.052924871 -0.13494833 1.4275465e-038
-0.03740612 0.051247429 -0.13377517 1.4824673e-038
-0.035389181 0.050409693 -0.13315575 1.3720486e-038
-0.033537235 0.050411742 -0.13309045 1.4089624e-038
-0.031512782 0.049574088 -0.13247079 1.6948764e-038
-0.029834257 0.050415874 -0.13295981 1.7502647e-038
-0.028161425 0.051257715 -0.13344906 1.7595205e-038
-0.026494283 0.052099515 -0.13393849 1.6396659e-038
-0.024465583 0.051261909 -0.1333186 1.4737141e-038
-0.022618109 0.051264014 -0.13325338 1.6488139e-038
-0.020959932 0.052105829 -0.13374308 1.8699759e-038
-0.019115707 0.052107949 -0.13367793 1.5840976e-038
-0.017271778 0.052110076 -0.1336128 1.6668571e-038
-0.015428102 0.052112207 -0.13354763 1.648705e-038
-0.013584709 0.052114341 -0.13348252 1.6396651e-038
-0.011741616 0.052116483 -0.13341738 8.5565176e-039
-0.0096935444 0.051278945 -0.13279678 8.4657835e-039
-0.0078482758 0.051281095 -0.13273154 9.0243481e-039
-0.0060032466 0.051283244 -0.13266635 7.73181e-039
-0.0041585006 0.051285394 -0.13260114 8.3800591e-039
-0.0020979797 0.050447825 -0.13198005 9.3041818e-039
-0.00025102869 0.050449982 -0.13191476 6.1677325e-039
0.0020384907 0.048772816 -0.13073733 3.0374013e-039
0.0038903255 0.048774973 -0.13067189 2.3027201e-039
0.0052883499 0.050456423 -0.13171901 2.3952773e-039
0.0069048284 0.051298268 -0.13221015 2.3952773e-039
0.0087479083 0.051300399 -0.13214506 4.7930839e-039
0.010825644 0.050462835 -0.13152337 3.041367e-039
0.012433398 0.051304642 -0.13201487 1.5669572e-039
0.014035551 0.052146398 -0.13250653 3.7796523e-039
0.016361035 0.050469171 -0.13132787 1.1988949e-039
0.018451387 0.049631648 -0.13070582 1.0509936e-038
0.020795356 0.047954474 -0.12952656 4.610136e-039
0.023400918 0.045437634 -0.1277898 1.8428266e-039
0.024500059 0.047958631 -0.12939583 7.3770811e-039
0.026095707 0.048800308 -0.12988782 1.521371e-038
0.027426723 0.050481584 -0.13093744 8.8504147e-039
0.030579504 0.046285488 -0.12808488 8.3011239e-040
0.032171983 0.047127169 -0.12857707 1.2723351e-038
0.033759024 0.047968775 -0.12906945 1.5676802e-039
0.035070654 0.049649965 -0.13011982 8.2990374e-039
0.036643997 0.050491519 -0.13061272 9.3629158e-041
0.038762324 0.049653862 -0.12998988 8.391233e-039
0.039774191 0.052174605 -0.13159922 4.0569622e-039
0.042172994 0.050497256 -0.13041823 1.4290677e-038
0.043449171 0.052178357 -0.13147001 1.3547714e-038
0.04643067 0.048821799 -0.12917203 7.1015802e-039
0.048278783 0.048823625 -0.12910715 1.3830421e-038
0.04983541 0.049665011 -0.12960084 2.7658661e-039
0.052268937 0.047987614 -0.12841883 1.4105211e-038
0.052932467 0.051347725 -0.1305889 6.4357294e-040
0.055371385 0.049670242 -0.12940678 1.456691e-038
0.056310188 0.052190695 -0.13101895 9.3103181e-039
0.059061997 0.049673587 -0.12927757 1.6317903e-038
0.059677176 0.053033531 -0.13144951 1.1891796e-038
0.061822027 0.052195549 -0.13082619 1.6500498e-038
0.064285271 0.050517924 -0.1296434 5.0693191e-039
0.066759318 0.048840329 -0.12846032 1.2900157e-039
0.069562547 0.046323087 -0.12671737 1.7241658e-038
0.070134982 0.049682837 -0.12889102 4.5175831e-039
0.07262817 0.048005145 -0.12770738 1.7886307e-038
0.074153081 0.048846085 -0.12820274 1.585728e-038
0.078963473 0.041291364 -0.12309967 3.3186741e-039
0.084382147 0.037096176 -0.12016932 2.2141118e-039
0.086606242 0.036257867 -0.11954374 2.8601903e-039
-0.11700223 0.04752478 -0.13639387 2.3066746e-039
-0.11538801 0.05173317 -0.13906914 4.5186494e-039
-0.11353331 0.051734172 -0.13900509 2.6747369e-039
-0.1115099 0.049210731 -0.13729663 2.5814664e-039
-0.10923433 0.043321472 -0.13339467 2.3055998e-039
-0.10716778 0.040798139 -0.13168462 1.8446217e-039
-0.10527845 0.040799297 -0.13161922 1.937539e-039
-0.10338932 0.040800493 -0.13155375 1.5687564e-039
-0.1015004 0.040801726 -0.13148826 1.2921695e-039
-0.099684291 0.041644502 -0.13197145 1.4765608e-039
-0.097949125 0.04332871 -0.13300356 1.5680348e-039
-0.096147023 0.044171497 -0.13348711 1.1077769e-039
-0.094512075 0.046697266 -0.13506879 1.3836435e-039
-0.092810184 0.048381563 -0.13610193 1.1992522e-039
-0.09094701 0.048382968 -0.13603708 1.5680348e-039
-0.086030416 0.037446916 -0.12876561 1.1992522e-039
-0.084321342 0.039131384 -0.12979837 1.3836435e-039
-0.082332224 0.038291495 -0.1291828 1.3836407e-039
-0.080437697 0.038293086 -0.12911664 1.4758363e-039
-0.078236014 0.035770345 -0.12740126 1.2925241e-039
-0.076333866 0.035771996 -0.12733476 1.2925241e-039
-0.074647769 0.037456542 -0.12836808 1.2925241e-039
-0.072972812 0.03914116 -0.1294018 1.3847197e-039
-0.071195647 0.039984316 -0.1298857 1.5691096e-039
-0.069076069 0.038303211 -0.1287192 1.200327e-039
-0.066945925 0.036622103 -0.12755221 2.3059543e-039
-0.064562306 0.033258177 -0.12528405 1.9371718e-039
-0.062653936 0.033260025 -0.1252171 2.3970724e-039
-0.060999632 0.034944776 -0.12625134 1.9360942e-039
-0.059356451 0.036629498 -0.12728588 1.6595101e-039
-0.057592101 0.037472814 -0.12777001 1.2914479e-039
-0.055563457 0.036633335 -0.12715258 1.2914479e-039
-0.053667396 0.036635287 -0.12708589 1.3836435e-039
-0.051350374 0.034113057 -0.12536603 1.5676774e-039
-0.049017366 0.031590812 -0.12364554 1.3832862e-039
-0.049731061 0.046738174 -0.13350089 1.9342977e-039
-0.04846286 0.050105795 -0.13564071 2.3956318e-039
-0.046762839 0.05094919 -0.13612692 7.9237683e-039
-0.044914573 0.050951213 -0.13606177 8.1027519e-039
-0.043223262 0.051794633 -0.13654825 7.2722752e-039
-0.04153765 0.052638058 -0.13703489 1.2712547e-038
-0.039533604 0.051798746 -0.13641809 8.8359954e-039
-0.037524451 0.050959449 -0.13580108 1.3627232e-038
-0.035510167 0.050120171 -0.13518386 1.4734652e-038
-0.033831142 0.050963655 -0.13567069 1.5104145e-038
-0.031812049 0.050124411 -0.13505326 1.5563681e-038
-0.030139009 0.050967909 -0.13554026 1.5010505e-038
-0.028471673 0.051811419 -0.13602743 1.5749489e-038
-0.026991026 0.053496331 -0.1370673 1.6858714e-038
-0.024786664 0.05181573 -0.13589716 1.6489931e-038
-0.022758208 0.050976548 -0.13527934 1.5383228e-038
-0.020535514 0.049295984 -0.13410853 1.5659094e-038
-0.019069506 0.050980914 -0.1351489 1.6213344e-038
-0.017225595 0.050983112 -0.13508366 1.6301259e-038
-0.015776329 0.052667979 -0.13612457 1.3811656e-038
-0.013738448 0.05182885 -0.13550638 1.1509669e-038
