# .PCD v0.7 - Point Cloud Data file format
VERSION 0.7
FIELDS x y z rgb
SIZE 4 4 4 4
TYPE F F F F
COUNT 1 1 1 1
WIDTH 917
HEIGHT 1
VIEWPOINT 0 0 0 1 0 0 0
POINTS 917
DATA ascii
-0.012130976 0.05114324 -0.04379287 1.1236338e-038
-0.010064432 0.051141962 -0.043425467 9.3935034e-039
-0.0081741698 0.051632151 -0.043974828 9.394225e-039
-0.006110156 0.051630922 -0.043607846 9.5793366e-039
-0.0040460848 0.05162973 -0.043240838 1.1241377e-038
-0.0017976714 0.051137108 -0.041955613 1.603591e-038
0.00064308615 0.050153047 -0.039750673 1.4748396e-038
0.0027154507 0.050151929 -0.039382141 8.5727292e-039
0.0051723802 0.049167946 -0.037174352 4.5168404e-039
0.0070554912 0.049658339 -0.037724856 2.8587596e-039
0.0087359808 0.050640251 -0.039196849 9.7730773e-039
0.011206709 0.049656328 -0.036986485 1.4383213e-038
0.013688242 0.04867246 -0.034774236 9.5897468e-039
0.01700245 0.045722768 -0.028872136 3.5963246e-039
0.018683854 0.046704791 -0.030343832 1.0327694e-038
0.019301107 0.050144173 -0.036431924 6.0877688e-039
0.021375434 0.050143361 -0.036062848 6.0870471e-039
0.022585798 0.052108455 -0.039389141 1.3371581e-038
0.024868878 0.051616263 -0.038097478 3.4144529e-039
0.026714861 0.052107036 -0.038654361 2.2148461e-039
0.029452037 0.050631996 -0.035511035 2.0308094e-039
0.031072119 0.051614307 -0.03699347 2.6768991e-039
0.032681935 0.052596696 -0.038477756 9.4071786e-039
0.034049675 0.05407057 -0.040890444 6.5491155e-039
0.036105774 0.054070093 -0.040524408 9.2217126e-039
0.038874324 0.052595258 -0.037375364 3.0453256e-039
0.041659348 0.051120438 -0.034223299 4.704847e-039
0.043005101 0.05259452 -0.036639847 7.1934101e-039
0.04482596 0.053085692 -0.037200961 1.0604647e-038
0.046890043 0.053085446 -0.036833361 9.0373227e-039
0.049706586 0.051610813 -0.033675566 9.5897762e-039
0.052033085 0.051119193 -0.032375805 5.901951e-039
0.054621585 0.050136127 -0.030143924 7.5614724e-039
0.057738569 0.048170209 -0.026047211 6.916103e-039
0.059310026 0.049153149 -0.027537923 4.9799947e-039
0.061135449 0.049644679 -0.028098 3.1360821e-039
0.062156558 0.051610693 -0.031457447 3.0438865e-039
0.063964866 0.052102335 -0.032020502 3.6892545e-039
0.066856369 0.050628155 -0.028849147 3.3208279e-039
0.069215521 0.050136946 -0.027543236 3.6896104e-039
0.072689906 0.047679923 -0.022497199 3.4130236e-039
-0.068470649 0.042469669 -0.042550713 9.6812614e-039
-0.066762254 0.044442885 -0.045783225 1.0326987e-038
-0.064870663 0.045428701 -0.047215112 8.1142916e-039
-0.062674917 0.044933423 -0.045940921 1.0971634e-038
-0.060366523 0.043944441 -0.043762699 4.7930839e-039
-0.0583786 0.044436574 -0.044293448 4.2402647e-039
-0.056396231 0.044928722 -0.044825181 4.4239343e-039
-0.054534957 0.045914594 -0.046262428 4.7916336e-039
-0.052566297 0.046406798 -0.046796639 4.9745815e-039
-0.050603133 0.046898983 -0.047331765 6.9088877e-039
-0.048398271 0.046403751 -0.046055917 6.6323008e-039
-0.04669318 0.047883399 -0.048404913 6.5372241e-039
-0.045004174 0.049363099 -0.050756808 1.3358622e-038
-0.043199733 0.050349072 -0.052204121 1.4926979e-038
-0.041003488 0.049853899 -0.050929777 1.6217704e-038
-0.038665328 0.048865005 -0.048746198 1.5940395e-038
-0.036456142 0.04836981 -0.047469482 1.6584678e-038
-0.034383908 0.048368391 -0.047101162 1.7137852e-038
-0.032601275 0.049354479 -0.048552364 1.7230402e-038
-0.030534534 0.049353093 -0.048184995 1.7045654e-038
-0.028617937 0.049845457 -0.048728306 1.7599551e-038
-0.026553996 0.049844109 -0.048361421 1.7506998e-038
-0.024800833 0.050830282 -0.049817815 1.6862706e-038
-0.022742283 0.050828971 -0.049451858 1.7508075e-038
-0.020844443 0.051321425 -0.049998458 1.6861288e-038
-0.018788595 0.051320158 -0.049632963 1.5663113e-038
-0.016898727 0.051812656 -0.050180957 1.5570919e-038
-0.01484551 0.051811434 -0.049815897 1.2618899e-038
-0.012792354 0.051810227 -0.049450837 9.2995043e-039
-0.010391255 0.050821554 -0.047255911 1.0683165e-038
-0.0085092597 0.051314145 -0.04780525 1.1513648e-038
-0.0064532068 0.051313013 -0.047439627 9.4864207e-039
-0.0045789937 0.05180566 -0.047990315 9.1158389e-039
-0.0025254702 0.05180458 -0.047625117 7.7383036e-039
-0.00065897964 0.052297283 -0.048177138 1.1702716e-038
0.0013921629 0.052296259 -0.047812331 1.484024e-038
0.0042132433 0.050320193 -0.043774575 1.5579961e-038
0.0068605617 0.048837945 -0.040651746 1.3000645e-038
0.008732968 0.049330756 -0.041202653 9.6812376e-039
0.010600295 0.049823605 -0.041754447 1.0787949e-038
0.01225944 0.050810277 -0.043227281 1.2724046e-038
0.013908219 0.051796958 -0.044701889 2.9502489e-039
0.015338282 0.053277466 -0.047099415 2.86057e-039
0.017385758 0.053276688 -0.046735104 6.54947e-039
0.019647218 0.052782148 -0.045448672 8.0238798e-039
0.021697916 0.05278144 -0.045083739 9.3149844e-039
0.023748901 0.052780762 -0.044718746 8.2997577e-039
0.026465196 0.051298812 -0.041583437 1.0973431e-038
0.029870605 0.048335522 -0.035673469 4.5204571e-039
0.031265814 0.049816296 -0.038077042 9.3146285e-039
0.032645553 0.051297113 -0.040483341 8.3004765e-039
0.033777528 0.053271748 -0.04381768 8.8536517e-039
0.035828281 0.053271301 -0.043452576 6.8253479e-039
0.038117137 0.052777097 -0.042161055 8.6692605e-039
0.041372642 0.050307825 -0.03716163 6.2714524e-039
0.042469386 0.052282639 -0.040502131 5.3487773e-039
0.044773057 0.051788583 -0.03920795 2.675104e-039
0.046089832 0.053269707 -0.04162528 3.5048647e-039
0.048645534 0.052281938 -0.039402172 3.41159e-039
0.051212475 0.051294245 -0.037177086 3.5037857e-039
0.055840217 0.046356328 -0.027513392 3.6881769e-039
0.059745252 0.042899784 -0.02063017 3.3204734e-039
0.063165374 0.040430874 -0.01560119 3.412669e-039
0.063706927 0.043393612 -0.020808205 3.5048633e-039
0.063950486 0.046850204 -0.026952244 3.320472e-039
0.064965963 0.048825502 -0.030306928 3.4126676e-039
0.068954855 0.045369215 -0.023408603 3.4126676e-039
-0.075130478 0.043612778 -0.05017231 8.4823497e-039
-0.073222436 0.044603348 -0.051598378 9.1277191e-039
-0.07123062 0.045097891 -0.052126933 7.3760021e-039
-0.069341697 0.04608845 -0.053556345 5.8086764e-039
-0.067463636 0.047079053 -0.054987736 7.0082986e-039
-0.065493852 0.047573622 -0.055520199 4.7034078e-039
-0.063319132 0.047076173 -0.054251108 5.7175584e-039
-0.061139356 0.04657869 -0.052981053 7.376714e-039
-0.058843933 0.045585223 -0.050807942 1.2170164e-038
-0.056651346 0.045087773 -0.049535658 6.0856038e-039
-0.05456949 0.045086354 -0.049165618 3.7825123e-039
-0.052606381 0.045580968 -0.049699251 1.3367975e-038
-0.050769977 0.04657162 -0.051137954 1.2443857e-038
-0.048696645 0.046570234 -0.050769415 1.5025692e-038
-0.046876483 0.047560941 -0.052211054 1.4746541e-038
-0.045067091 0.048551641 -0.053654544 1.5572689e-038
-0.043400235 0.05003842 -0.056005988 1.529466e-038
-0.041211739 0.049541052 -0.054734387 1.7230048e-038
-0.039018121 0.049043693 -0.053461868 1.64914e-038
-0.036819294 0.048546311 -0.052188363 1.685946e-038
-0.034900066 0.049041077 -0.052729785 1.6675069e-038
-0.033131186 0.050031882 -0.054180432 1.6952012e-038
-0.03122538 0.050526656 -0.054724168 1.7044572e-038
-0.029174656 0.050525408 -0.05435957 1.7782137e-038
-0.026971027 0.050028127 -0.053085223 1.7782137e-038
-0.0250734 0.050522957 -0.053630382 1.7229325e-038
-0.023022827 0.050521754 -0.05326578 1.7505912e-038
-0.020972311 0.050520573 -0.052901179 1.7137129e-038
-0.018921804 0.050519407 -0.052536566 1.7414071e-038
-0.017037503 0.051014319 -0.053084053 1.6953104e-038
-0.014989637 0.051013194 -0.052719884 1.6307382e-038
-0.012941773 0.051012091 -0.052355707 1.5661659e-038
-0.010719691 0.050514948 -0.051077977 1.2156833e-038
-0.0088459058 0.051009946 -0.051627286 1.0128543e-038
-0.0071567809 0.052001059 -0.053092018 1.0498413e-038
-0.0049318876 0.051503982 -0.051813751 1.0407655e-038
-0.0030710781 0.051999055 -0.052365322 9.6708105e-039
-0.0012154961 0.052494157 -0.052917801 7.7354226e-039
0.00063492078 0.052989282 -0.053471193 1.0408011e-038
0.002865612 0.052492302 -0.052191831 4.1423097e-039
0.0056878198 0.05050711 -0.048159551 4.4268196e-039
0.0079374015 0.050010171 -0.046876807 3.9654883e-039
0.010192438 0.049513262 -0.045593057 5.5324609e-039
0.01184312 0.050504595 -0.047064435 6.3611327e-039
0.013277455 0.051992066 -0.049456876 1.2631153e-038
0.015321965 0.051991317 -0.049093075 8.2075606e-039
0.017155457 0.052486677 -0.049649332 1.2909538e-038
0.018983956 0.05298207 -0.050206456 7.1934087e-039
0.020807415 0.053477518 -0.05076452 1.1434408e-038
0.022845164 0.0534769 -0.050401837 6.2714538e-039
0.025105122 0.052980207 -0.049117014 4.6119325e-039
0.027370723 0.052483574 -0.047831222 4.7956035e-039
0.029414885 0.052483056 -0.04746734 4.0587587e-039
0.030999728 0.053474762 -0.048950277 3.2289966e-039
0.032574408 0.054466475 -0.050434962 3.0446054e-039
0.035079528 0.053473905 -0.04822392 3.0446054e-039
0.038309127 0.050993059 -0.043236244 3.0446054e-039
0.042287234 0.047024034 -0.035467792 3.320472e-039
0.044120267 0.047519814 -0.036023874 3.5963386e-039
0.046685889 0.046527363 -0.033801906 3.504143e-039
0.048020519 0.048015419 -0.036211744 3.504143e-039
0.049339741 0.049503524 -0.038624302 3.504143e-039
0.052927531 0.046526827 -0.032690175 3.504143e-039
0.056547925 0.043550204 -0.026750272 3.2282764e-039
0.060978156 0.039085336 -0.018018568 3.5048633e-039
0.062316079 0.040573619 -0.020427678 3.2282764e-039
0.062581047 0.044046279 -0.02655784 2.7683744e-039
0.06280949 0.047519017 -0.032694537 2.4914316e-039
0.066777855 0.04404651 -0.025809964 1.8460622e-039
0.072801456 0.044543333 -0.025618829 2.1215631e-039
0.074340142 0.045535833 -0.027109437 2.5803776e-039
-0.089585111 0.041798271 -0.053876009 8.7600156e-039
-0.087638296 0.042793572 -0.055292226 7.1004942e-039
-0.085626155 0.043290541 -0.055815656 9.405385e-039
-0.083540671 0.043289196 -0.055444926 7.3770811e-039
-0.081618696 0.044284478 -0.056865513 8.1135672e-039
-0.07953912 0.04428314 -0.056495827 4.0580384e-039
-0.077546768 0.04478012 -0.057022773 6.9161016e-039
-0.075559989 0.045277137 -0.057550762 8.4837832e-039
-0.073486574 0.045275807 -0.05718217 1.2078691e-038
-0.071413435 0.045274474 -0.056813627 9.0369556e-039
-0.069243059 0.044774793 -0.055546623 6.7313446e-039
-0.067267969 0.045271829 -0.056076687 1.3000647e-038
-0.065401301 0.046267163 -0.05750709 9.5901308e-039
-0.063545495 0.047262538 -0.058939479 1.3923324e-038
-0.061592396 0.04775957 -0.05947338 1.0511719e-038
-0.059423193 0.047259942 -0.058206625 1.0972695e-038
-0.057362404 0.047258653 -0.057840258 1.4291015e-038
-0.055185687 0.046759006 -0.056572102 6.7306103e-039
-0.053122662 0.046757728 -0.056205325 1.5120047e-038
-0.051181257 0.047254827 -0.056741353 6.9135526e-039
-0.04936938 0.048250251 -0.058181465 1.4840212e-038
-0.047441579 0.048747346 -0.058719844 1.5668155e-038
-0.045389861 0.048746109 -0.058355056 1.4192279e-038
-0.043602359 0.049741603 -0.059799541 1.6125497e-038
-0.041421615 0.049242012 -0.058530629 1.6769424e-038
-0.039235711 0.048742462 -0.057260849 1.5938226e-038
-0.03690464 0.047744565 -0.055084132 1.7136047e-038
-0.0351336 0.048740085 -0.056531459 1.6767265e-038
-0.033518486 0.050234005 -0.058887679 1.7320795e-038
-0.031623565 0.050731212 -0.059431843 1.741299e-038
-0.029733974 0.051228434 -0.059976943 1.7320795e-038
-0.027543398 0.050728954 -0.058706284 1.7321159e-038
-0.025659295 0.05122621 -0.059252352 1.7782137e-038
-0.023463488 0.05072676 -0.057980742 1.7597746e-038
-0.021423606 0.050725684 -0.057617966 1.7228609e-038
-0.019383727 0.050724626 -0.057255182 1.7228609e-038
-0.01751031 0.051221952 -0.057803109 1.6675436e-038
-0.015473089 0.051220927 -0.057440773 1.6122263e-038
-0.013435857 0.051219925 -0.057078429 1.6584321e-038
-0.011398569 0.051218942 -0.056716058 1.4738996e-038
-0.0095382966 0.051716376 -0.057266321 1.1049779e-038
-0.0075035635 0.051715434 -0.056904387 1.2249767e-038
-0.0052863937 0.051216107 -0.055628821 9.2080345e-039
-0.0034338133 0.051713608 -0.056180414 9.209468e-039
-0.001586467 0.052211106 -0.056732882 1.0593123e-038
0.00025574025 0.052708622 -0.05728624 1.0407655e-038
0.0022857366 0.052707791 -0.056925077 5.0635486e-039
0.0045114709 0.05220861 -0.055647973 9.6837725e-039
0.0065444848 0.052207824 -0.055286244 1.2171254e-038
0.0089794146 0.051210277 -0.053090733 5.0721904e-039
0.010611 0.05220633 -0.054562647 7.9284584e-039
0.012438404 0.052704003 -0.055118542 3.595261e-039
0.014678503 0.052204944 -0.053838808 4.9799947e-039
0.016712589 0.052204292 -0.053476803 3.412669e-039
0.018318687 0.053200435 -0.054953132 3.2282778e-039
0.020348068 0.053199839 -0.054591928 3.3211937e-039
0.02259725 0.052700885 -0.053310499 3.412669e-039
0.025296381 0.051205166 -0.050186738 3.5970603e-039
0.027112622 0.051703073 -0.050744552 3.5970603e-039
0.02915141 0.0517026 -0.050381597 3.3211937e-039
0.030730437 0.052698933 -0.051862638 3.4133879e-039
0.033695742 0.050704941 -0.047810331 3.4133879e-039
0.036918081 0.04821258 -0.042831179 3.2289966e-039
0.040643618 0.044723447 -0.0360002 3.5048633e-039
0.043443989 0.043227963 -0.032858327 3.3208279e-039
0.044557262 0.045221277 -0.036184378 3.1360807e-039
0.046141841 0.046217822 -0.037664298 2.7672982e-039
0.047965106 0.046716012 -0.038220607 2.6751026e-039
0.050286308 0.046217453 -0.036926109 2.3063201e-039
0.053121444 0.044722125 -0.03377787 1.9375376e-039
0.056229908 0.042728473 -0.02969992 1.6609507e-039
0.059619684 0.040236436 -0.024690729 1.7531463e-039
0.061988831 0.039738007 -0.023387536 1.8453419e-039
0.063834645 0.040236466 -0.02393974 1.9386137e-039
0.065408625 0.041233331 -0.025421342 1.9382578e-039
0.068322696 0.039738249 -0.022258887 2.123005e-039
0.068526924 0.043227214 -0.028389804 2.0308094e-039
0.06896998 0.046217803 -0.033597048 2.1222833e-039
0.070215881 0.047713261 -0.036018088 7.6439374e-039
0.072288655 0.047713559 -0.035648603 9.4802872e-039
0.07577908 0.045221929 -0.030621231 1.0311847e-038
-0.10201405 0.040481262 -0.058100399 8.6670955e-039
-0.1000945 0.041981936 -0.060398173 6.1778135e-039
-0.098070055 0.042481352 -0.060917888 8.8514867e-039
-0.095861502 0.041478913 -0.058765821 5.6246397e-039
-0.093774475 0.041477706 -0.05839473 5.1640189e-039
-0.091962025 0.043479018 -0.061591238 6.7320648e-039
-0.090099938 0.044979677 -0.063899189 9.9581888e-039
-0.088106334 0.04547913 -0.064424448 1.2170884e-038
-0.085965291 0.04497727 -0.063164018 1.0787952e-038
-0.083660811 0.043474186 -0.060115229 1.1802104e-038
-0.081586272 0.043472979 -0.059746355 1.0602849e-038
-0.079681046 0.04447303 -0.061166964 1.4199188e-038
-0.077612415 0.044471826 -0.060799144 1.0512439e-038
-0.075633869 0.044971257 -0.061327025 7.6543729e-039
-0.073660925 0.045470722 -0.061855953 7.2848715e-039
-0.071788669 0.046470806 -0.063282415 1.4015871e-038
-0.069731757 0.046469614 -0.062916681 7.377786e-039
-0.067574635 0.045967788 -0.061653439 4.8888599e-039
-0.065618694 0.046467245 -0.062185332 2.399222e-039
-0.063773997 0.047467358 -0.063616678 3.6892405e-039
-0.062048588 0.048968147 -0.065948971 1.2540377e-038
-0.05989505 0.04846634 -0.064686365 1.2631851e-038
-0.057736509 0.047964536 -0.063422859 9.6815907e-039
-0.055456478 0.046962053 -0.061258014 1.4752348e-038
-0.053404059 0.046960905 -0.060893051 1.0141483e-038
-0.051595189 0.047961097 -0.062330808 1.4935293e-038
-0.04979708 0.048961274 -0.063770421 1.3918255e-038
-0.04788281 0.04946081 -0.064309686 1.3916085e-038
-0.04558517 0.048458382 -0.062141743 1.760176e-038
-0.04367388 0.048957936 -0.062681526 1.5480171e-038
-0.041498184 0.048456185 -0.061414938 1.5020238e-038
-0.03945493 0.048455097 -0.061051574 1.6308446e-038
-0.037271582 0.04795336 -0.059783604 1.584639e-038
-0.035797365 0.049954981 -0.063040175 1.6306287e-038
-0.0340534 0.050955258 -0.064489372 1.7411914e-038
-0.032171998 0.051454891 -0.065034434 1.7135324e-038
-0.029692743 0.04995187 -0.061954461 1.6952012e-038
-0.027658034 0.049950857 -0.061592564 1.6951656e-038
-0.025779497 0.05045053 -0.062138125 1.7597025e-038
-0.023906287 0.050950214 -0.06268461 1.6583595e-038
-0.021715617 0.050448582 -0.061415281 1.7228609e-038
-0.019355591 0.049446248 -0.059236091 1.7504475e-038
-0.017318398 0.049445309 -0.058873706 1.6675071e-038
-0.015450542 0.04994509 -0.059421163 1.6120821e-038
-0.013588007 0.05044486 -0.059969507 1.7320795e-038
-0.011905355 0.051445328 -0.061429508 1.6860182e-038
-0.010055969 0.051945142 -0.061980162 1.0680983e-038
-0.0082118008 0.052445002 -0.062531784 1.0129619e-038
-0.0060076537 0.051943462 -0.061259922 1.0223984e-038
-0.0037981011 0.051441967 -0.059987139 9.7648054e-039
-0.0015831813 0.050940491 -0.05871338 7.553548e-039
0.00063716434 0.050439034 -0.057438653 5.6195992e-039
0.0024765902 0.050938964 -0.057991009 4.6990862e-039
0.0043108212 0.05143892 -0.058544278 3.8729255e-039
0.0063384855 0.051438212 -0.058183454 3.8729255e-039
0.0085674478 0.050936837 -0.056907132 3.6881769e-039
0.010801954 0.050435487 -0.055629812 3.7803726e-039
0.012835539 0.050434846 -0.055267893 3.9640435e-039
0.01549669 0.048932128 -0.052155245 3.41159e-039
0.017326944 0.049432222 -0.052709132 3.6881769e-039
0.0189378 0.050433073 -0.054181762 3.41159e-039
0.020755373 0.050933219 -0.054737873 3.6892545e-039
0.022787713 0.050932709 -0.054376092 3.1360821e-039
0.02548752 0.04943011 -0.051256489 3.1360821e-039
0.027078502 0.050431073 -0.052732587 3.0438865e-039
0.029114617 0.050430644 -0.052370086 3.0438851e-039
0.031151082 0.050430242 -0.0520075 2.582907e-039
0.034585953 0.047425628 -0.04611798 2.2148447e-039
0.038053136 0.044421066 -0.040222749 1.8460622e-039
0.041552681 0.041416533 -0.034321729 1.6616709e-039
0.044120792 0.040414821 -0.032105081 1.4776356e-039
0.045969181 0.040915295 -0.032655574 1.5694753e-039
0.04805911 0.040915076 -0.032283351 1.8453419e-039
0.049900673 0.041415587 -0.032834966 1.568755e-039
0.051989105 0.041415434 -0.032462966 2.0297332e-039
0.054840915 0.039913192 -0.02931606 1.9375376e-039
0.05745247 0.038911711 -0.027091596 1.9382578e-039
0.060854103 0.036408141 -0.02208747 1.9382578e-039
0.063234061 0.035907403 -0.020783778 2.1226491e-039
0.065355211 0.035907432 -0.020405836 2.1226491e-039
0.067209549 0.036408234 -0.020955067 2.0304534e-039
0.068518825 0.037910439 -0.023360556 2.0308094e-039
0.068721287 0.041415542 -0.029481752 1.9393326e-039
0.069162749 0.044419955 -0.034680683 5.3491276e-039
0.070407875 0.045922309 -0.037097573 1.0772105e-038
0.072761528 0.04542188 -0.035798453 1.1414593e-038
0.075688668 0.043920066 -0.032637857 1.0493716e-038
-0.11068737 0.044194397 -0.070437551 2.9509664e-039
-0.10852687 0.043187473 -0.06829676 3.8732772e-039
-0.10655688 0.044192307 -0.069702923 5.6257145e-039
-0.10433353 0.042682439 -0.066672727 6.5469505e-039
-0.10242772 0.044190202 -0.068968542 7.1001243e-039
-0.10036363 0.04418914 -0.068601444 1.4291383e-038
-0.098299876 0.044188082 -0.068234414 8.8518412e-039
-0.096172959 0.04368408 -0.066977903 1.3369427e-038
-0.094173357 0.044185951 -0.067500517 1.2816609e-038
-0.092179403 0.044687819 -0.068024144 1.1249284e-038
-0.09026254 0.04569263 -0.069439709 7.9302409e-039
-0.088282496 0.046194535 -0.069965862 1.4568326e-038
-0.086231291 0.046193466 -0.069601059 8.4834147e-039
-0.083862558 0.044180598 -0.065666795 3.8732772e-039
-0.081965528 0.045185413 -0.067085885 2.7655004e-039
-0.080079421 0.046190269 -0.068506986 1.309212e-038
-0.078029357 0.046189204 -0.068142384 1.0422016e-038
-0.075799458 0.045182209 -0.065989278 2.5836132e-039
-0.073837399 0.045684095 -0.066518575 6.0856178e-039
-0.071976289 0.046688966 -0.067944117 1.4109146e-038
-0.06993001 0.046687908 -0.067580186 1.318719e-038
-0.067883961 0.046686854 -0.067216299 1.2541096e-038
-0.065838195 0.046685804 -0.066852465 1.1619141e-038
-0.06400463 0.047690671 -0.068282835 1.438501e-038
-0.062181957 0.048695579 -0.069715202 3.2293372e-039
-0.060036175 0.048191585 -0.068455324 9.036943e-039
-0.057885349 0.047687564 -0.067194507 1.3923311e-038
-0.055612758 0.046680614 -0.065033838 4.9803353e-039
-0.053687602 0.047182553 -0.065569676 1.3647445e-038
-0.051646024 0.047181539 -0.065206558 1.1800647e-038
-0.050102882 0.049192421 -0.068445094 1.3180702e-038
-0.048199467 0.049694397 -0.068984784 1.576109e-038
-0.04617168 0.049693406 -0.068624109 1.530011e-038
-0.044011556 0.049189456 -0.067361653 1.6683401e-038
-0.041981395 0.049188484 -0.067000546 1.6494659e-038
-0.039951414 0.049187519 -0.066639468 1.6400287e-038
-0.03792154 0.049186565 -0.066278398 1.6675069e-038
-0.036034882 0.049688596 -0.066821046 1.6582874e-038
-0.034153666 0.050190639 -0.067364641 1.7319718e-038
-0.032129426 0.050189719 -0.067004554 1.7780694e-038
-0.029954178 0.049685828 -0.065739378 1.7043131e-038
-0.027927462 0.049684927 -0.065378837 1.7780696e-038
-0.026369868 0.05119301 -0.067736499 1.7135327e-038
-0.024510182 0.051695123 -0.068283886 1.6398484e-038
-0.022332562 0.051191278 -0.067018256 1.6951302e-038
-0.019820984 0.049681447 -0.063936681 1.6490679e-038
-0.017627468 0.049177624 -0.062668197 1.6581796e-038
-0.015767846 0.04967979 -0.063215569 1.6950933e-038
-0.013913507 0.05018197 -0.063763872 1.7597381e-038
-0.012064458 0.050684199 -0.064313158 1.5384703e-038
-0.010043094 0.050683424 -0.063953497 9.8515878e-039
-0.0078414362 0.050179645 -0.062683463 8.9321595e-039
-0.0056344299 0.049675912 -0.061412528 6.9989365e-039
-0.0034220275 0.049172189 -0.060140613 6.1706164e-039
-0.0010160888 0.048165496 -0.057956029 5.3415718e-039
0.0014006076 0.047158785 -0.055769466 4.514695e-039
0.0030542281 0.048164129 -0.057231676 4.0547972e-039
0.0045013032 0.049672462 -0.059608806 3.687814e-039
0.0063301688 0.050174825 -0.060161527 3.3197517e-039
0.0083553009 0.050174214 -0.059801091 3.5037857e-039
0.010380694 0.050173618 -0.059440602 3.5959813e-039
0.013026368 0.048664052 -0.056335047 3.41159e-039
0.015478875 0.047657471 -0.054142021 3.6885343e-039
0.017942216 0.046650939 -0.051947113 3.5963386e-039
0.019772533 0.047153428 -0.052499495 3.2282764e-039
0.022249747 0.04614694 -0.050302085 3.1360807e-039
0.024957869 0.044637442 -0.047185291 2.6751026e-039
0.027904915 0.042624954 -0.043147739 2.2141244e-039
0.030197678 0.042121533 -0.041861326 1.7531477e-039
0.032952033 0.040612102 -0.038736258 1.6609521e-039
0.035722677 0.039102718 -0.035608314 1.7531463e-039
0.0392095 0.036084287 -0.029718138 1.7538666e-039
0.042020921 0.034574956 -0.026582904 1.7538666e-039
0.044133127 0.034574665 -0.02620676 1.7538666e-039
0.045522209 0.036083423 -0.02859395 1.8460622e-039
0.047139723 0.037089236 -0.030062299 2.0304534e-039
0.049733289 0.03608299 -0.027843934 1.7545868e-039
0.052088901 0.035579816 -0.026546173 1.7545868e-039
0.054450408 0.03507667 -0.025247337 2.0304534e-039
0.055799812 0.036585614 -0.027641552 1.9389781e-039
0.058162682 0.036082502 -0.026342385 2.2148447e-039
0.061310966 0.034070402 -0.022268748 2.0304534e-039
0.063956305 0.03306438 -0.020041086 2.0304549e-039
0.066347867 0.032561395 -0.018736795 2.0304534e-039
0.068477765 0.032561459 -0.018357277 2.0304534e-039
0.068444461 0.036585674 -0.025388638 2.7676527e-039
0.067822993 0.041615937 -0.03428112 5.350924e-039
0.06825231 0.044634171 -0.039473619 7.0867979e-039
0.070042945 0.045137379 -0.040032629 7.083198e-039
0.07267265 0.044131603 -0.037807606 6.8069712e-039
0.076733172 0.040610775 -0.030936658 7.3608653e-039
-0.12053892 0.037853274 -0.065417141 6.8246122e-039
-0.11844782 0.037852369 -0.065045141 6.8246122e-039
-0.11631994 0.037346225 -0.0637898 4.9799793e-039
-0.11450554 0.040882021 -0.069604643 3.412655e-039
-0.11260133 0.042902108 -0.072773121 1.3461268e-038
-0.11071878 0.044922195 -0.075945459 1.1526591e-038
-0.10871448 0.045426533 -0.076465704 1.4568325e-038
-0.10671584 0.045930862 -0.076986961 7.2855903e-039
-0.10451037 0.044414204 -0.073964246 9.3138942e-039
-0.10245661 0.04441328 -0.073598906 7.9313157e-039
-0.10046162 0.044917602 -0.07412082 7.3774216e-039
-0.09841115 0.044916674 -0.073756069 1.4384289e-038
-0.096233539 0.04390521 -0.071615055 3.1353465e-039
-0.094377659 0.045420066 -0.073915355 1.4383211e-038
-0.092468992 0.046429668 -0.075329475 1.3092472e-038
-0.090427808 0.046428736 -0.074966379 3.0431508e-039
-0.088312522 0.045922518 -0.073713258 6.1778036e-039
-0.086192235 0.045416325 -0.072459295 1.5581756e-038
-0.083987251 0.044404868 -0.070313476 1.1064171e-038
-0.081936643 0.044403933 -0.069948703 2.8583938e-039
-0.080141373 0.045918778 -0.072259739 1.428922e-038
-0.078186981 0.046423133 -0.072788931 1.069539e-038
-0.076147854 0.046422202 -0.0724262 2.581821e-039
-0.074016027 0.045915976 -0.071170136 6.4554751e-039
-0.072357334 0.047936138 -0.07438232 7.5629017e-039
-0.070326969 0.047935218 -0.074021146 4.6137163e-039
-0.068195932 0.047429025 -0.072765261 1.3002798e-038
-0.066059858 0.04692284 -0.07150849 1.3186111e-038
-0.063918673 0.046416651 -0.070250794 8.9443914e-039
-0.061881363 0.046415739 -0.069888383 1.5398806e-038
-0.059844259 0.046414826 -0.069526002 1.1432955e-038
-0.057693154 0.045908615 -0.068266496 1.4290663e-038
-0.055420134 0.044897161 -0.066108547 6.3625592e-039
-0.053495232 0.04540154 -0.06664291 2.9506007e-039
-0.051453684 0.045400646 -0.066279724 1.0324808e-038
-0.049786758 0.046915624 -0.068613619 5.0696596e-039
-0.048008434 0.047925305 -0.070050843 7.3727455e-039
-0.046370972 0.049440306 -0.072389975 1.4098313e-038
-0.044351332 0.049439449 -0.072030671 1.5661304e-038
-0.042467203 0.049943879 -0.072572261 1.5752038e-038
-0.040450498 0.049943037 -0.072213478 1.7411557e-038
-0.038433913 0.049942203 -0.071854696 1.7781418e-038
-0.036560789 0.050446663 -0.072398245 1.5753114e-038
-0.034547064 0.050445847 -0.072039969 1.7688146e-038
-0.03253343 0.050445039 -0.071681701 1.7042777e-038
-0.030368567 0.049938951 -0.070419729 1.6674349e-038
-0.028352467 0.049938161 -0.070061013 1.6857663e-038
-0.02664965 0.050947968 -0.071511619 1.6674349e-038
-0.024957445 0.051957816 -0.072964162 1.64896e-038
-0.022790182 0.051451772 -0.071701728 1.7964733e-038
-0.020288493 0.049935117 -0.068626165 1.8056929e-038
-0.017938145 0.04892379 -0.066454366 1.6214091e-038
-0.015916875 0.048923068 -0.066094682 1.6489235e-038
-0.014068147 0.049427658 -0.066642493 1.5753479e-038
-0.012224617 0.04993226 -0.067191206 1.2064965e-038
-0.010386399 0.05043688 -0.067740873 9.7615572e-039
-0.0085533457 0.050941516 -0.068291433 6.6276345e-039
-0.0059932107 0.049424961 -0.065205462 5.064629e-039
-0.0032312609 0.047403086 -0.061206728 4.6965667e-039
0.013022341 0.042345922 -0.049545825 2.2141258e-039
0.015700608 0.040829457 -0.046438687 1.937539e-039
0.018185358 0.03981835 -0.044242799 1.7531463e-039
0.020256482 0.039817873 -0.043874089 1.7531477e-039
0.022757769 0.038806766 -0.041675188 1.7531463e-039
0.025705071 0.036785059 -0.037643325 1.9375376e-039
0.028453667 0.035268713 -0.034523651 2.1219288e-039
0.03099573 0.034257662 -0.032317452 1.9375376e-039
0.033323269 0.033751979 -0.031026246 2.0297346e-039
0.034971926 0.034762278 -0.032486256 2.2141258e-039
0.036610395 0.035772577 -0.033948015 2.0304549e-039
0.037771717 0.037793558 -0.037248302 2.0304549e-039
0.040092994 0.037287965 -0.035958156 2.0304549e-039
0.040987261 0.039814316 -0.040182732 1.6623926e-039
0.043304157 0.039308742 -0.038893282 1.9382578e-039
0.044162247 0.04183517 -0.043124318 1.6623926e-039
0.047955558 0.038297735 -0.03631131 1.9389781e-039
0.050788969 0.036781609 -0.03317631 2.0304534e-039
0.056159865 0.030212335 -0.020821761 2.0304534e-039
0.057524506 0.031728186 -0.023208901 2.0311737e-039
0.059646081 0.031728119 -0.022830948 2.0304534e-039
0.062548555 0.030212134 -0.019683622 2.1226491e-039
0.06494233 0.02970678 -0.018380344 2.1226505e-039
0.067872904 0.028190855 -0.015227983 2.2148461e-039
0.070016056 0.028190909 -0.014846105 2.1226491e-039
0.070264816 0.031728227 -0.020938955 3.5059381e-039
0.069930241 0.036276236 -0.028889239 5.07434e-039
0.070376731 0.039308302 -0.034070071 7.2794723e-039
0.072185732 0.039813824 -0.034624446 9.2037003e-039
0.074834622 0.038803369 -0.032398846 1.0495518e-038
0.084181882 0.029708127 -0.014951624 3.0399166e-039
-0.11825143 0.036032528 -0.066141807 5.072175e-039
-0.11634769 0.038569558 -0.07017988 7.8380438e-039
-0.11447088 0.0411066 -0.074222744 2.3063075e-039
-0.11253565 0.042628523 -0.076504514 5.25586e-039
-0.11070745 0.045165572 -0.080556035 4.980701e-039
-0.1087621 0.046179913 -0.081960604 1.1803176e-038
-0.10687842 0.047701847 -0.084251545 1.3923676e-038
-0.10479759 0.047193497 -0.08300595 7.5618129e-039
-0.10254366 0.045162424 -0.079103455 4.795944e-039
-0.10038617 0.044146467 -0.076968826 9.5890377e-039
-0.098463751 0.04516083 -0.078377537 1.3645645e-038
-0.096424282 0.045160029 -0.078014672 1.2539301e-038
-0.09451846 0.046174366 -0.079426281 2.3977814e-039
-0.092484936 0.046173565 -0.079064474 9.6812362e-039
-0.09045171 0.046172764 -0.078702711 1.5581756e-038
-0.088344201 0.045664389 -0.077452376 4.7026694e-039
-0.086386226 0.046171159 -0.077979371 3.1353437e-039
-0.084433891 0.046677928 -0.078507349 1.5581036e-038
-0.082404554 0.046677127 -0.078146286 1.0326594e-038
-0.08046075 0.047183931 -0.078675851 5.6235509e-039
-0.078346737 0.046675522 -0.07742431 1.4475054e-038
-0.076137073 0.045659564 -0.07528045 1.2631142e-038
-0.073917128 0.044643607 -0.073134765 1.2171607e-038
-0.071974456 0.045150384 -0.073664479 1.1341846e-038
-0.069938809 0.045149587 -0.073302284 1.3371226e-038
-0.067802213 0.044641208 -0.072046772 1.1988289e-038
-0.065556712 0.043625217 -0.069896482 1.4661962e-038
-0.063407362 0.043116834 -0.068638705 1.2079764e-038
-0.061252963 0.042608455 -0.067380026 4.6119185e-039
-0.059093468 0.04210005 -0.066120394 8.391219e-039
-0.05669998 0.040576499 -0.063068464 9.2199063e-039
-0.054642122 0.040575713 -0.062702306 3.2271904e-039
-0.052823976 0.041590109 -0.064129502 3.7803641e-039
-0.051016677 0.042604543 -0.065558679 3.8714808e-039
-0.049470253 0.044634171 -0.068784967 3.9636764e-039
-0.047689814 0.045648593 -0.070218869 4.3317387e-039
-0.046311181 0.048185844 -0.074350365 6.819206e-039
-0.044427224 0.048692696 -0.074890494 1.2067118e-038
-0.042684354 0.049707182 -0.076331101 1.4830816e-038
-0.040813923 0.050214052 -0.076873623 1.4921924e-038
-0.038948897 0.050720934 -0.077417098 1.5289628e-038
-0.036802091 0.050212625 -0.076159731 1.4277994e-038
-0.034650076 0.049704324 -0.074901432 1.5660563e-038
-0.032641761 0.049703628 -0.074544042 1.5476892e-038
-0.030785114 0.050210543 -0.075089 1.6767986e-038
-0.028625388 0.049702264 -0.073829293 1.7042057e-038
-0.026774187 0.050209194 -0.074375205 1.6306652e-038
-0.024928281 0.050716143 -0.074922048 1.6857665e-038
-0.023087729 0.051223099 -0.075469837 1.6674349e-038
-0.020922899 0.050714854 -0.074209213 1.6488526e-038
-0.018752776 0.050206617 -0.072947651 1.5476899e-038
-0.016747449 0.050205998 -0.072590746 1.3724866e-038
-0.014742123 0.050205391 -0.072233841 1.0590586e-038
-0.012561337 0.049697187 -0.070970349 1.1238124e-038
-0.010553255 0.049696602 -0.070612937 9.0257956e-039
-0.0083644427 0.049188387 -0.069347948 8.1060015e-039
-0.0056201899 0.047157381 -0.065358117 7.3738399e-039
-0.002482635 0.044111103 -0.059547488 5.2533418e-039
0.0031392584 0.034465801 -0.0419151 3.5938205e-039
0.0056098388 0.033450034 -0.039724633 2.5803888e-039
0.0073154611 0.034464732 -0.041171692 2.2123266e-039
0.0090105571 0.035479479 -0.042620666 1.93646e-039
0.0096990401 0.039032318 -0.048625518 1.93646e-039
0.012167678 0.03801661 -0.046435364 1.8453433e-039
0.015056297 0.035985656 -0.042419709 1.937539e-039
0.018173482 0.033447094 -0.037488017 2.2141258e-039
0.020687938 0.032431398 -0.035289627 2.3063215e-039
0.02236316 0.033446245 -0.03674208 2.0304549e-039
0.02338269 0.035983969 -0.040937256 1.9382592e-039
0.025247149 0.036491208 -0.041480608 2.2148461e-039
0.026004396 0.039536595 -0.046597794 2.0304549e-039
0.027622569 0.040551528 -0.048060361 2.0304549e-039
0.029004771 0.042074073 -0.0504402 2.1226505e-039
0.030828275 0.042581428 -0.050990853 1.3850854e-039
0.033109039 0.042073499 -0.049709313 1.6616723e-039
0.03492805 0.042580891 -0.050260738 1.9389795e-039
0.037214972 0.042073004 -0.048978072 2.8609358e-039
0.038790591 0.043088064 -0.050448138 5.8111959e-039
0.041322827 0.042072594 -0.048246432 3.0446068e-039
0.043133173 0.042580076 -0.048799355 7.2856058e-039
0.04691492 0.039026506 -0.041998431 4.24315e-039
0.050734472 0.035472989 -0.035190813 3.7821718e-039
0.056862932 0.027350796 -0.020093929 2.2148461e-039
0.058997121 0.027350713 -0.019713737 2.0304534e-039
0.061132014 0.027350653 -0.019333402 2.2148447e-039
0.063527867 0.026842996 -0.018031254 2.123005e-039
0.065403819 0.02735061 -0.018572327 2.123005e-039
0.066743828 0.028873526 -0.02095953 2.2151992e-039
0.068068661 0.030396439 -0.023349369 2.2151992e-039
0.068294302 0.03394993 -0.029436344 1.8474929e-039
0.069851719 0.034965269 -0.030909408 1.1102824e-039
0.070846632 0.036995918 -0.034233332 2.5854125e-039
0.07349509 0.035980824 -0.03201076 4.0565825e-039
0.076155096 0.034965727 -0.02978606 3.3182972e-039
0.081954382 0.028366795 -0.017373629 2.8587596e-039
0.085241109 0.026336521 -0.013286621 2.3077508e-039
-0.11809015 0.034722526 -0.068118654 2.3988702e-039
-0.11622798 0.037781149 -0.07303074 6.9160876e-039
-0.11423684 0.038800277 -0.074424252 7.8376781e-039
-0.11208484 0.03777983 -0.072293386 2.3063075e-039
-0.11051573 0.043387916 -0.081627302 3.1367884e-039
-0.10866748 0.045426801 -0.084794059 1.4108068e-038
-0.10684085 0.047465663 -0.087964617 1.2632217e-038
-0.10487497 0.047974918 -0.08848872 1.3831116e-038
-0.10274594 0.046954464 -0.086361952 6.3632697e-039
-0.10054764 0.045424152 -0.083349004 3.9651043e-039
-0.098456874 0.044913575 -0.082102962 1.235563e-038
-0.096425392 0.044912905 -0.08174143 1.4291738e-038
-0.094528064 0.045932032 -0.083151653 3.0431508e-039
-0.092363387 0.04491156 -0.081018545 1.9368033e-039
-0.090405069 0.045420803 -0.081543997 1.3369061e-038
-0.088152841 0.043890435 -0.078521408 1.4383565e-038
-0.086040072 0.043379873 -0.077271514 5.5327874e-039
-0.084162861 0.044398971 -0.078685254 4.6104765e-039
-0.082130887 0.044398293 -0.078323647 1.5673952e-038
-0.080099195 0.044397619 -0.077962078 1.4106628e-038
-0.077891432 0.043377161 -0.075821362 3.5034227e-039
-0.07612747 0.044906162 -0.078129172 1.0142226e-038
-0.074005798 0.044395596 -0.076877683 9.3128222e-039
-0.072071344 0.044904821 -0.07740733 3.2286309e-039
-0.069944911 0.044394255 -0.076154999 2.5843377e-039
-0.067711949 0.043373793 -0.074009791 2.3985157e-039
-0.064948171 0.039803781 -0.06740047 3.4130222e-039
-0.062467724 0.037763484 -0.063463345 3.505215e-039
-0.060075726 0.036233116 -0.060415924 3.4130194e-039
-0.058116212 0.036742341 -0.060941104 3.5966932e-039
-0.055474054 0.034192137 -0.056101289 3.4123019e-039
-0.04972019 0.036229786 -0.058572967 3.8714822e-039
-0.047774993 0.036739029 -0.059100684 4.0558734e-039
-0.046091221 0.038268127 -0.061422791 4.2395444e-039
-0.045729592 0.044896323 -0.072719343 3.9636764e-039
-0.044504263 0.0479552 -0.077744812 5.341562e-039
-0.04290311 0.049484309 -0.080081575 9.9466547e-039
-0.041040886 0.049993638 -0.080624104 1.0037762e-038
-0.039184086 0.050502945 -0.081167527 1.1697274e-038
-0.037188869 0.050502352 -0.08081241 1.4645361e-038
-0.035047211 0.049991854 -0.079557315 1.3630478e-038
-0.033198699 0.050501183 -0.080102213 1.3999258e-038
-0.031355515 0.051010519 -0.08064805 1.547439e-038
-0.029054392 0.049990125 -0.07849066 1.584317e-038
-0.026899822 0.049479622 -0.077233203 1.4735027e-038
-0.024739977 0.048969153 -0.075974852 1.3997828e-038
-0.022899728 0.049478523 -0.076521203 1.4740438e-038
-0.020734634 0.048968069 -0.075261898 1.197387e-038
-0.018564288 0.048457623 -0.07400167 8.6559187e-039
-0.016558971 0.048457101 -0.073644705 1.022397e-038
-0.014380674 0.047946669 -0.072383046 9.5786023e-039
-0.01237266 0.04794617 -0.07202559 5.9844132e-039
-0.010186335 0.047435727 -0.070762441 6.1695304e-039
-0.008175537 0.047435243 -0.070404477 6.4475578e-039
-0.0059811063 0.046924848 -0.069139928 9.4918185e-039
-0.0035950653 0.045904543 -0.066967346 3.2239562e-039
-0.00063158851 0.043354452 -0.06207021 2.7640584e-039
0.0017838394 0.042334136 -0.05989233 2.8569757e-039
0.0045984522 0.040293977 -0.055895586 2.5811091e-039
0.00802493 0.036724057 -0.049168203 2.5811091e-039
0.011488717 0.033154115 -0.042434115 2.3974381e-039
0.014383317 0.031114014 -0.038423151 2.4896337e-039
0.01504658 0.034683123 -0.044422381 2.3063215e-039
0.016295299 0.036722481 -0.047695663 1.9382592e-039
0.016892748 0.040291633 -0.053706586 2.0304549e-039
0.019368147 0.039271437 -0.051518019 2.1226505e-039
0.020777401 0.040800922 -0.053888805 2.3070417e-039
0.023915499 0.038250938 -0.048960485 2.3992374e-039
0.024431933 0.041820165 -0.054985799 6.3636495e-039
0.026698461 0.041309956 -0.053708281 5.5338888e-039
0.028066572 0.042839505 -0.056086347 1.1342213e-038
0.030105248 0.042839255 -0.055723276 7.6543883e-039
0.032375578 0.042329066 -0.054444999 9.221714e-039
0.034183685 0.042838804 -0.054996908 8.2075621e-039
0.037170149 0.040798858 -0.050969411 1.0973431e-038
0.039221171 0.040798679 -0.050604098 9.4983009e-039
0.042240463 0.038758762 -0.046570733 7.3778014e-039
0.044058532 0.039268546 -0.047120769 7.1004942e-039
0.047602672 0.036208808 -0.041246135 6.8246276e-039
0.050929405 0.033659019 -0.036284089 2.1219302e-039
0.054283284 0.031109242 -0.031317201 2.1226491e-039
0.055622432 0.032638963 -0.033700254 2.123005e-039
0.057462081 0.033148844 -0.034246385 2.3988716e-039
0.060078781 0.032128952 -0.03203246 1.7531463e-039
0.062970147 0.030599123 -0.028895656 1.8460622e-039
0.064814545 0.031109096 -0.029440952 3.6903293e-039
0.067191586 0.030599173 -0.028143493 3.506294e-039
0.068218529 0.032638986 -0.031456012 8.6699695e-039
0.071142256 0.031109272 -0.028313443 1.0421684e-038
0.073529735 0.030599415 -0.027014084 1.3369061e-038
0.077598885 0.027030002 -0.020171883 1.2078323e-038
0.081706285 0.023460586 -0.013322799 4.4268055e-039
0.083006248 0.024990585 -0.015712731 3.0427991e-039
0.085440107 0.024480859 -0.014405098 2.5825384e-039
-0.11775337 0.030856138 -0.065699011 1.1077783e-039
-0.11599572 0.035465401 -0.073238432 3.7821578e-039
-0.11420522 0.039050292 -0.079027079 7.0082832e-039
-0.11210658 0.038537532 -0.077780992 5.1650909e-039
-0.11046179 0.043146819 -0.085340507 2.8612791e-039
-0.10867108 0.0457073 -0.089384139 9.1302274e-039
-0.10680489 0.047243394 -0.091669396 5.3494835e-039
-0.10473953 0.046730664 -0.090429291 9.3138956e-039
-0.10261265 0.045705702 -0.088305704 1.4844913e-038
-0.10029791 0.043144137 -0.08353129 1.0511719e-038
-0.09826611 0.043143593 -0.083169624 2.7669297e-039
-0.096363649 0.044167481 -0.084575973 7.8376921e-039
-0.094337821 0.044166941 -0.084215365 1.2355275e-038
-0.092033014 0.042117555 -0.080315188 3.7814375e-039
-0.08999718 0.042117007 -0.079952806 3.7807173e-039
-0.087886512 0.041604258 -0.07870464 8.1139105e-039
-0.085537463 0.03955486 -0.074796587 6.1778022e-039
-0.083569698 0.040066514 -0.075318791 3.0431508e-039
-0.08160755 0.040578168 -0.075841993 3.1360681e-039
-0.079307944 0.039040994 -0.072815262 2.7669297e-039
-0.077257968 0.039040443 -0.07245037 3.4122991e-039
-0.07529936 0.0395521 -0.072974198 3.688886e-039
-0.073346317 0.040063757 -0.073499024 3.9654729e-039
-0.070724189 0.03698992 -0.067797422 4.3335351e-039
-0.068169504 0.034428291 -0.062980302 4.7945133e-039
-0.065791912 0.032891072 -0.059939634 4.3342554e-039
-0.063607365 0.032378305 -0.058678314 4.2424157e-039
-0.061952733 0.034426633 -0.061873697 4.4268069e-039
-0.060319576 0.036474962 -0.065072909 4.4257307e-039
-0.058258645 0.036474422 -0.06470605 4.7945133e-039
-0.055968072 0.035449419 -0.062553339 4.056951e-039
-0.053549454 0.033912208 -0.059505351 3.5044975e-039
-0.051956967 0.035960559 -0.062711798 3.3197489e-039
-0.050508782 0.038521141 -0.06681639 3.6878112e-039
-0.048710614 0.039545082 -0.068241283 3.5956156e-039
-0.046025805 0.036983438 -0.063400976 3.5956156e-039
-0.045277536 0.042105161 -0.071992539 3.2275533e-039
-0.04418188 0.04569022 -0.077904806 3.9629561e-039
-0.04257885 0.04722641 -0.080236889 7.1880025e-039
-0.04099188 0.048762608 -0.082571842 8.5684104e-039
-0.039137982 0.04927434 -0.083114281 8.1063589e-039
-0.037145432 0.04927386 -0.082759574 8.1045596e-039
-0.03500618 0.048761159 -0.081506275 1.0596723e-038
-0.032861777 0.048248466 -0.080252066 1.2809062e-038
-0.030864183 0.048247997 -0.079896443 9.9506344e-039
-0.028402572 0.046710834 -0.076840773 8.3811465e-039
-0.026397174 0.046710376 -0.076483756 1.0133585e-038
-0.024231814 0.046197698 -0.0752258 6.9081786e-039
-0.022386512 0.046709482 -0.075769745 5.5252442e-039
-0.020215902 0.046196818 -0.074510828 7.2773241e-039
-0.018207995 0.046196386 -0.074153356 7.2769611e-039
-0.016200062 0.046195962 -0.07379587 6.2624463e-039
-0.013845625 0.04517106 -0.071631722 7.2773185e-039
-0.011656412 0.044658422 -0.070369475 6.4475578e-039
-0.0092833508 0.043633562 -0.068202041 6.9088975e-039
-0.0072619971 0.043633167 -0.067842156 7.0010931e-039
-0.0054244371 0.04414501 -0.068387434 6.357167e-039
-0.0032190913 0.043632403 -0.067122303 7.5564305e-039
-0.0008191932 0.042607542 -0.064950027 6.1742163e-039
0.0013996474 0.042094953 -0.063682482 5.1607861e-039
0.0036238874 0.041582372 -0.062413976 5.8065156e-039
0.0062478273 0.040045302 -0.05932932 3.778932e-039
0.0094870459 0.036971539 -0.053517736 2.7655004e-039
0.013567866 0.031848822 -0.044066403 2.4896337e-039
0.014421158 0.034921937 -0.049149234 2.3974381e-039
0.014827479 0.03901957 -0.056056615 3.5048647e-039
0.01582266 0.041580483 -0.060241714 5.164386e-039
0.018069603 0.041067973 -0.058969114 9.4975806e-039
0.020322166 0.040555444 -0.057695452 2.2148461e-039
0.023671813 0.037481744 -0.051864155 4.980715e-039
0.024844032 0.039530475 -0.055145245 3.6899762e-039
0.027113503 0.039018009 -0.053868603 1.0604647e-038
0.028483499 0.040554505 -0.056241944 1.0512451e-038
0.030524751 0.040554304 -0.055878386 8.115365e-039
0.032798 0.040041875 -0.054601043 1.0051475e-038
0.034842774 0.0400417 -0.05423684 7.3781657e-039
0.037835479 0.037992556 -0.050213952 8.4848692e-039
0.040131316 0.037480168 -0.048932567 3.7825263e-039
0.043401759 0.034918815 -0.043987744 3.4130222e-039
0.046454489 0.032869715 -0.039954133 3.1364353e-039
0.049033929 0.031845134 -0.03774976 2.5839818e-039
0.050874129 0.032357283 -0.038294379 2.399222e-039
0.052709512 0.032869443 -0.038839854 8.4841349e-039
0.055051289 0.032357149 -0.037550226 9.8684973e-039
0.05739899 0.031844869 -0.036259532 6.4558311e-039
0.059752721 0.031332579 -0.034967698 1.226379e-038
0.062375959 0.030308094 -0.032755461 1.1528729e-038
0.064478271 0.030308105 -0.032380886 3.0460221e-039
0.066312529 0.030820372 -0.032926496 1.0052184e-038
0.068142235 0.031332657 -0.033472903 2.9538405e-039
0.070241623 0.03133272 -0.033098824 8.3191026e-040
0.072618611 0.030820567 -0.031802829 5.8133413e-039
0.075840324 0.028771685 -0.027738973 1.0791164e-038
0.080495082 0.024161605 -0.019057566 1.0698957e-038
0.083489873 0.022625037 -0.015906602 2.7672856e-039
0.086501658 0.021088457 -0.012752541 2.7680059e-039
-0.11580124 0.033659507 -0.074326769 1.1081286e-039
-0.11413493 0.038804285 -0.082740426 5.4416777e-039
-0.1122614 0.040861961 -0.085891001 7.0100684e-039
-0.11036338 0.042405125 -0.0881662 2.0315184e-039
-0.10843285 0.043433744 -0.089564525 2.5832587e-039
-0.10641039 0.043433338 -0.089204438 1.3370147e-038
-0.10444238 0.043947443 -0.089725077 1.1341844e-038
-0.1023097 0.042918 -0.087603316 8.5752572e-039
-0.10022613 0.042403072 -0.086361334 4.7030407e-039
-0.097951293 0.040344559 -0.08247216 3.3201063e-039
-0.09591452 0.040344141 -0.082109533 3.4119446e-039
-0.093810648 0.039829209 -0.080863938 3.3197489e-039
-0.091351435 0.036741614 -0.075199857 3.3197489e-039
-0.088860624 0.033654045 -0.069530196 4.426451e-039
-0.086715177 0.033139098 -0.068277195 5.4398827e-039
-0.084564738 0.032624152 -0.067023307 5.8090211e-039
-0.082247876 0.031080129 -0.063997693 5.6253501e-039
-0.076178819 0.032107882 -0.064659208 5.3491276e-039
-0.074741833 0.035709172 -0.070500635 4.9796248e-039
-0.072966397 0.037252348 -0.072797656 5.7171898e-039
-0.07072401 0.036222849 -0.070656322 5.4398827e-039
-0.068074122 0.033135246 -0.064958341 5.8086652e-039
-0.065902308 0.032620303 -0.063700646 6.7316977e-039
-0.063830107 0.032619879 -0.063331708 4.5190026e-039
-0.062616065 0.036735695 -0.070083797 5.3487632e-039
-0.060785357 0.037764359 -0.071499951 4.1502201e-039
-0.058965441 0.038793001 -0.072917975 4.1498669e-039
-0.057156388 0.039821677 -0.074337989 4.1498669e-039
-0.054768905 0.038277656 -0.071299784 3.5966932e-039
-0.052727215 0.03827725 -0.07093627 3.2275533e-039
-0.050193116 0.036218695 -0.06700094 3.5963358e-039
-0.048015378 0.035703763 -0.06574218 3.5041402e-039
-0.045961 0.035703361 -0.065376408 3.504143e-039
-0.04456234 0.038275648 -0.069482543 3.1353605e-039
-0.044126671 0.044449721 -0.079857409 3.2257568e-039
-0.042799875 0.04702203 -0.083976328 3.0406453e-039
-0.041082554 0.048050713 -0.085412607 3.6842112e-039
-0.039092511 0.04805034 -0.085058279 8.4769435e-039
-0.036813889 0.047020908 -0.082910508 7.27768e-039
-0.034671802 0.04650601 -0.081658088 5.6174398e-039
-0.032524474 0.045991082 -0.080404669 6.3550048e-039
-0.030371971 0.045476187 -0.079150379 7.9226879e-039
-0.028214201 0.044961296 -0.07789515 6.5393961e-039
-0.026051242 0.044446412 -0.076638997 6.1698933e-039
-0.023882981 0.043931499 -0.075381838 7.7379393e-039
-0.021872416 0.043931156 -0.075023822 6.815983e-039
-0.019696299 0.043416284 -0.073765315 6.1713324e-039
-0.017514899 0.042901415 -0.072505862 7.1854844e-039
-0.015328175 0.04238655 -0.071245462 5.8025499e-039
-0.013136128 0.041871689 -0.069984093 6.3557237e-039
-0.010762615 0.040842269 -0.067819357 6.7245062e-039
-0.0085572917 0.040327419 -0.066555627 7.7383022e-039
-0.0067094248 0.040841654 -0.067097597 6.2638924e-039
-0.0048668431 0.041355897 -0.067640483 5.618523e-039
-0.0030295029 0.041870177 -0.068184361 5.8961889e-039
-0.0010078987 0.041869897 -0.067824349 5.0671485e-039
0.0012058634 0.041355051 -0.066559047 4.514695e-039
0.0036197784 0.040325698 -0.06438712 6.4504459e-039
0.005847075 0.0398109 -0.063119456 6.8206675e-039
0.0088798478 0.037237901 -0.058224212 7.5582326e-039
0.012141924 0.03415034 -0.052417066 2.9491713e-039
0.015025485 0.032091897 -0.048419405 2.2130468e-039
0.015435066 0.036208067 -0.055314671 7.3770811e-039
0.016434312 0.038780592 -0.059491828 5.8104757e-039
0.018686775 0.038265839 -0.058219641 6.9168232e-039
0.021160774 0.037236545 -0.056036983 5.0721904e-039
0.024301311 0.034663599 -0.051122513 5.4416932e-039
0.025477834 0.036721591 -0.054397006 6.3636481e-039
0.027976653 0.035692323 -0.052209906 4.7044812e-039
0.029806899 0.0362067 -0.052754916 2.2152006e-039
0.032548934 0.03466291 -0.049653474 1.5694767e-039
0.034843631 0.034148186 -0.048373669 1.4765608e-039
0.037378535 0.03311896 -0.046180122 1.1999739e-039
0.04039881 0.031060621 -0.042158037 1.1084986e-039
0.042481691 0.031060506 -0.041787006 9.1302246e-039
0.045534823 0.02900219 -0.037759058 1.1804255e-038
0.048364669 0.027458457 -0.034641929 1.235635e-038
0.049972136 0.028487468 -0.036097579 5.0746917e-039
0.050818324 0.031060159 -0.040301897 3.5977651e-039
0.05265082 0.031574648 -0.040846441 1.1526589e-038
0.055757374 0.02951639 -0.03680893 1.0883002e-038
0.057593834 0.030030934 -0.0373528 1.1999599e-039
0.059686676 0.030030916 -0.036979936 9.5886888e-039
0.06230773 0.029001787 -0.034770902 1.0791153e-038
0.064940177 0.027972702 -0.032559887 1.4772657e-039
0.06731496 0.027458176 -0.031265758 5.6246425e-039
0.070782818 0.02488542 -0.026292786 3.3211923e-039
0.071534142 0.027458262 -0.030513979 2.0311751e-039
0.073367909 0.027972871 -0.031058218 2.4010296e-039
0.075476997 0.02797295 -0.030682396 1.1158883e-038
0.080128625 0.023342069 -0.022014484 1.1251419e-038
0.083688982 0.020769421 -0.017025027 2.1211945e-039
0.087277018 0.01819679 -0.012030635 5.072175e-039
-0.11381994 0.035471186 -0.081184082 1.4779901e-039
-0.11224547 0.041156106 -0.090469182 5.9037349e-039
-0.11031245 0.042189486 -0.091864109 7.5632562e-039
-0.10829233 0.042189203 -0.091504365 2.3992234e-039
-0.10601404 0.039604727 -0.086750686 2.9520412e-039
-0.10387256 0.038570777 -0.084630162 3.0442396e-039
-0.10166375 0.037019964 -0.081628025 3.044241e-039
-0.09961836 0.037019674 -0.081263781 3.1353605e-039
-0.098009691 0.040637277 -0.087064475 3.1353605e-039
-0.095593557 0.037535954 -0.081416674 3.1353605e-039
