# .PCD v0.7 - Point Cloud Data file format
VERSION 0.7
FIELDS x y z rgb
SIZE 4 4 4 4
TYPE F F F F
COUNT 1 1 1 1
WIDTH 913
HEIGHT 1
VIEWPOINT 0 0 0 1 0 0 0
POINTS 913
DATA ascii
-0.1179061 0.04724887 -0.023376012 8.2032615e-039
-0.11610121 0.051997483 -0.032011338 1.3647393e-038
-0.11403627 0.052945182 -0.033436108 1.4106202e-038
-0.1118986 0.052942608 -0.033056844 1.4104403e-038
-0.10971674 0.052464891 -0.031774204 1.299734e-038
-0.10762426 0.052937422 -0.032298516 1.2627482e-038
-0.10553748 0.053409941 -0.032823849 1.2718238e-038
-0.1034563 0.053882465 -0.033350177 1.2070363e-038
-0.10127048 0.053404704 -0.032066859 1.1978165e-038
-0.099195316 0.05387722 -0.032594264 1.1147687e-038
-0.097004823 0.053399444 -0.031310126 1.1700858e-038
-0.094935626 0.053871952 -0.0318386 1.2992305e-038
-0.092806272 0.053869314 -0.031460859 1.3545837e-038
-0.090814151 0.054817006 -0.032898605 1.3362872e-038
-0.088619612 0.054339204 -0.03161376 1.373201e-038
-0.086493857 0.054336559 -0.031236663 1.3547619e-038
-0.084521241 0.055284239 -0.032677826 1.3547263e-038
-0.082401387 0.055281602 -0.032301776 1.3547264e-038
-0.080281831 0.055278964 -0.031925775 1.3547264e-038
-0.078162551 0.055276327 -0.031549826 1.308593e-038
-0.076043561 0.055273697 -0.031173924 1.3269244e-038
-0.074104242 0.056221433 -0.032620985 1.2347291e-038
-0.071991146 0.056218818 -0.032246124 9.3052033e-039
-0.069973297 0.056691423 -0.032783754 8.1970691e-039
-0.067863286 0.05668883 -0.03240943 6.7252125e-039
-0.065954253 0.05763663 -0.033861853 2.4893072e-039
-0.063747093 0.057158865 -0.032574732 7.4015744e-040
-0.061746154 0.057631496 -0.033115286 6.4796742e-040
-0.059642445 0.057628945 -0.032742061 6.4796742e-040
-0.057538956 0.057626415 -0.032368861 4.6357616e-040
-0.055435665 0.057623889 -0.031995688 5.5577179e-040
-0.053448856 0.058096595 -0.032538719 6.4760728e-040
-0.051467545 0.058569349 -0.033082765 6.4760728e-040
-0.04937014 0.058566883 -0.032710612 2.2152581e-039
-0.047397114 0.05903966 -0.03325605 1.2727333e-038
-0.045302708 0.059037227 -0.032884404 6.3058431e-044
-0.043337978 0.059510048 -0.033431295 1.4737624e-039
-0.041246526 0.059507668 -0.033060148 8.2994354e-039
-0.039155208 0.059505306 -0.032689005 1.005258e-038
-0.037063975 0.059502974 -0.032317866 5.5250956e-040
-0.03497291 0.059500664 -0.031946741 6.1778527e-039
-0.033024698 0.05997362 -0.03249649 1.2171639e-038
-0.030936455 0.059971362 -0.032125834 1.0138563e-039
-0.028848263 0.059969138 -0.031755168 9.2095157e-040
-0.026910886 0.060442194 -0.032306787 7.3835817e-040
-0.024978846 0.06091531 -0.032859385 8.2946499e-040
-0.023208125 0.061863691 -0.034336086 1.3555283e-038
-0.020972118 0.061386339 -0.033043575 1.1067385e-039
-0.018892068 0.061384283 -0.032674253 1.3646409e-038
-0.016484177 0.060431704 -0.0304556 8.8508197e-039
-0.014565447 0.060904998 -0.03101046 1.013136e-039
-0.012482754 0.060903046 -0.030640602 1.0124269e-039
-0.010743776 0.061851673 -0.032122806 9.1906962e-041
-0.0088408263 0.062325075 -0.03268034 1.3186866e-038
-0.006943075 0.06279853 -0.033238772 7.3833015e-040
-0.0046908446 0.062321469 -0.031943191 1.0127815e-039
-0.0024332488 0.061844438 -0.03064663 5.3477459e-039
-0.00054049864 0.062318027 -0.03120587 1.1434429e-038
0.0015348573 0.062316373 -0.030837134 1.0143334e-038
0.0038008881 0.061839484 -0.029538983 3.7835059e-044
0.0058791982 0.061837919 -0.029169666 5.9012658e-039
0.0075662527 0.062786996 -0.030660838 1.2909197e-038
0.009242896 0.063736156 -0.03215389 1.9361559e-039
0.011311242 0.063734755 -0.031786244 4.5960207e-040
0.013583553 0.063258119 -0.030486815 1.189613e-038
0.015448738 0.063732117 -0.031050708 6.3633075e-039
0.017517887 0.063730881 -0.030682821 1.3185784e-038
0.019375665 0.064205006 -0.03124796 4.6030833e-040
0.021657079 0.063728586 -0.029946776 2.7556955e-040
0.023510208 0.06420283 -0.030512668 1.2632264e-038
0.025358371 0.064677134 -0.031079406 1.0973449e-038
0.027423879 0.064676195 -0.030711975 6.0867403e-039
0.029489823 0.064675316 -0.030344434 1.0974171e-038
0.031556137 0.064674512 -0.029976785 2.8634876e-039
0.033622947 0.064673766 -0.029609006 1.2080876e-038
0.035690188 0.064673096 -0.029241107 2.4907562e-039
0.037993524 0.064197168 -0.02793571 3.409837e-039
-0.11917885 0.034859531 -0.005105501 1.3000307e-038
-0.11770041 0.04536055 -0.024513613 8.4809344e-039
-0.11586124 0.049655017 -0.032234266 1.4016529e-038
-0.1137547 0.050130006 -0.03275454 1.4199835e-038
-0.11165383 0.050605007 -0.033275895 1.4198395e-038
-0.10951382 0.05060254 -0.032896142 1.4473541e-038
-0.10742161 0.0510775 -0.033418991 1.4748689e-038
-0.10533508 0.051552463 -0.033942848 1.4285562e-038
-0.1032014 0.051549971 -0.033564243 1.3454007e-038
-0.10106809 0.051547475 -0.033185706 1.1885961e-038
-0.09899319 0.052022427 -0.033711646 1.3084141e-038
-0.096863173 0.052019916 -0.033333704 1.372951e-038
-0.094796918 0.052494891 -0.033861235 1.3914971e-038
-0.092670217 0.05249238 -0.033483885 1.4007164e-038
-0.090475127 0.052012362 -0.032200254 1.4100793e-038
-0.088346392 0.052009843 -0.031822547 1.4192987e-038
-0.086292021 0.052484822 -0.032352194 1.4192984e-038
-0.084319949 0.053437255 -0.033790495 1.4377375e-038
-0.08220008 0.053434744 -0.033414368 1.4285183e-038
-0.080080539 0.053432226 -0.033038296 1.4008596e-038
-0.077961288 0.053429715 -0.032662272 1.4099714e-038
-0.075842299 0.053427204 -0.032286298 1.4099717e-038
-0.073813558 0.053902198 -0.032820433 1.3915325e-038
-0.071697786 0.053899705 -0.032445021 1.3547264e-038
-0.069677562 0.054374713 -0.032980666 1.2715358e-038
-0.067564957 0.054372236 -0.032605805 9.6736706e-039
-0.065553233 0.0548473 -0.033142999 1.8432176e-039
-0.06344375 0.054844841 -0.032768682 1.0167443e-039
-0.061334543 0.054842398 -0.032394409 7.4088331e-040
-0.059334096 0.055317469 -0.032933533 6.4868768e-040
-0.057227984 0.055315055 -0.032559797 4.6429642e-040
-0.055235919 0.055790167 -0.033100393 1.0167499e-039
-0.053132873 0.055787772 -0.032727182 9.2455431e-040
-0.05103004 0.055785395 -0.032354001 9.2419417e-040
-0.048927374 0.055783033 -0.031980842 4.7052604e-039
-0.046949346 0.056258231 -0.032523889 1.2543662e-038
-0.044849653 0.056255907 -0.03215123 1.2908089e-039
-0.043009669 0.057208709 -0.033612907 1.749992e-039
-0.040915601 0.057206437 -0.033241227 1.0973829e-038
-0.038821682 0.057204179 -0.032869559 1.419599e-038
-0.036590137 0.056724407 -0.031579345 5.465064e-044
-0.034634158 0.057199746 -0.032126233 8.8518889e-039
-0.032683562 0.057675116 -0.032674059 1.152627e-038
-0.030592721 0.057672963 -0.032302871 2.6766062e-039
-0.028501956 0.057670832 -0.031931691 8.8515498e-039
-0.026411263 0.057668731 -0.031560499 2.6737321e-039
-0.024474224 0.058144227 -0.032110665 2.6726559e-039
-0.022698779 0.05909735 -0.033583641 1.383187e-038
-0.020616138 0.059095345 -0.033213824 7.379588e-040
-0.018371925 0.058615778 -0.031921159 1.2539351e-038
-0.016122483 0.058136269 -0.030627595 5.531777e-039
-0.014201378 0.058611937 -0.031180486 2.4889863e-039
-0.012116082 0.058610067 -0.030810118 1.2893712e-039
-0.01037505 0.059563428 -0.032289077 1.3822842e-039
-0.0084697455 0.060039222 -0.032844707 1.3279062e-038
-0.0065696668 0.060515061 -0.03340124 4.0917915e-043
-0.0043146154 0.060035765 -0.032106541 1.1971755e-039
-0.0022368515 0.060034096 -0.031737387 1.0787997e-038
-0.00015906338 0.060032472 -0.0313682 1.2817363e-038
0.001918897 0.060030889 -0.030998958 4.0566526e-039
0.0039970279 0.060029354 -0.030629655 1.8373265e-040
0.0062686936 0.059550263 -0.02933187 5.348092e-039
0.0081538325 0.060026422 -0.029890869 1.3370177e-038
0.0098351855 0.060980231 -0.031380113 3.6847564e-040
0.011908777 0.060978886 -0.031011496 4.5924614e-040
0.013982628 0.060977597 -0.030642804 1.300212e-038
0.016056737 0.060976356 -0.030274035 4.4261357e-039
0.018131133 0.060975168 -0.029905185 1.3554923e-038
0.01999389 0.061451674 -0.030468024 4.9045446e-044
0.02228079 0.060972959 -0.02916722 1.8373265e-040
0.02392168 0.061927188 -0.030663485 1.1802504e-038
0.02599206 0.061926223 -0.030295204 6.5480589e-039
0.028062819 0.061925326 -0.029926822 1.1157487e-038
0.030359149 0.061446868 -0.028624248 6.4551542e-039
0.032205544 0.061923701 -0.029189724 7.104132e-039
0.034047093 0.062400602 -0.029756028 1.2541497e-038
0.035883762 0.062877573 -0.030323157 1.1996656e-039
0.038658839 0.061444126 -0.027147211 6.2671925e-039
-0.11893602 0.032440238 -0.0053756246 9.9567987e-039
-0.11742613 0.042512629 -0.023853775 9.6805551e-039
-0.11558385 0.046828069 -0.031560831 1.3741016e-038
-0.11351194 0.047785241 -0.032978404 1.4384581e-038
-0.11140867 0.048262648 -0.033497758 1.4383143e-038
-0.10926601 0.048260301 -0.033117466 1.4199472e-038
-0.10721909 0.049217492 -0.034539543 1.4840164e-038
-0.10508243 0.049215131 -0.034160327 1.4469585e-038
-0.10299914 0.049692519 -0.03468325 1.2900459e-038
-0.10081016 0.049210384 -0.033402093 1.2992652e-038
-0.098674513 0.049208 -0.033023071 1.4007161e-038
-0.09660019 0.049685381 -0.033547599 1.4284108e-038
-0.094531529 0.05016277 -0.034073133 1.428518e-038
-0.092468485 0.050640184 -0.034599721 1.4009669e-038
-0.090273164 0.050157979 -0.033317409 1.4010027e-038
-0.088144414 0.05015558 -0.03293962 1.4102219e-038
-0.086090319 0.050633006 -0.033467799 1.410294e-038
-0.084118739 0.051590189 -0.034903236 1.3826353e-038
-0.081998944 0.051587798 -0.034527041 1.3825632e-038
-0.07996165 0.052065205 -0.035058152 1.4194415e-038
-0.077845059 0.052062824 -0.034682523 1.3825632e-038
-0.075728752 0.05206044 -0.034306947 1.3916752e-038
-0.073522508 0.051578254 -0.033022739 1.3547971e-038
-0.071496971 0.052055694 -0.033555929 1.4007876e-038
-0.069477014 0.052533139 -0.034090102 1.3363228e-038
-0.06736441 0.052530784 -0.033715166 1.3544029e-038
-0.065151274 0.052048616 -0.032429725 1.1607582e-038
-0.063036539 0.052046269 -0.032054406 5.3372502e-039
-0.061028183 0.052523762 -0.03259062 1.4766323e-039
-0.058916565 0.052521445 -0.032215837 1.0167443e-039
-0.05702807 0.053478826 -0.033666026 7.4088331e-040
-0.054922208 0.053476535 -0.033292249 1.0167499e-039
-0.052816551 0.053474262 -0.032918505 8.3200135e-040
-0.05059167 0.052992158 -0.031630926 9.2419417e-040
-0.048483767 0.052989908 -0.031256765 7.5651073e-039
-0.046625398 0.053947359 -0.032712203 1.1437669e-038
-0.04452309 0.053945154 -0.03233901 1.5673986e-039
-0.04242095 0.053942963 -0.031965841 1.6577963e-039
-0.040451635 0.054420643 -0.032508891 9.1267059e-039
-0.03835246 0.054418493 -0.03213622 1.253648e-038
-0.036391329 0.054896254 -0.03268075 3.6739944e-040
-0.034154426 0.054414257 -0.031390898 1.1986535e-038
-0.032342106 0.055371933 -0.032854475 8.6656928e-039
-0.030102717 0.054890014 -0.031564195 3.0460809e-039
-0.028155249 0.055367857 -0.032111045 1.3002475e-038
-0.026061928 0.055365849 -0.031739328 9.1888745e-041
-0.024122551 0.055843756 -0.032287575 7.7444749e-039
-0.022188459 0.056321692 -0.032836743 1.0327375e-038
-0.020100605 0.056319781 -0.032465942 1.7524653e-039
-0.018012725 0.056317903 -0.032095116 1.38308e-038
-0.01592485 0.056316052 -0.031724274 2.1205415e-039
-0.013836946 0.056314237 -0.031353399 7.4682482e-039
-0.011749079 0.056312457 -0.030982517 8.3163e-040
-0.010005938 0.057270519 -0.032458179 3.5070843e-039
-0.0079232128 0.057268813 -0.032088164 1.4103427e-038
-0.0060181394 0.057747036 -0.032642324 3.6740504e-040
-0.003757596 0.057265513 -0.031348035 1.8679309e-042
-0.0016746181 0.057263918 -0.030977903 1.3002489e-038
0.0002228138 0.057742268 -0.031533349 1.1251478e-038
0.0023033479 0.057740755 -0.031163603 9.1902758e-041
0.0043840827 0.057739291 -0.03079379 9.213061e-040
0.0064649591 0.057737868 -0.03042393 3.4123607e-039
0.0085460367 0.05773649 -0.030054005 1.2910293e-038
0.010428393 0.058215067 -0.030611996 5.465064e-044
0.012305696 0.058693692 -0.031170849 1.1978958e-039
0.014177918 0.059172377 -0.031730574 1.337126e-038
0.016251963 0.059171192 -0.031361785 4.6137752e-040
0.018326294 0.05917006 -0.030992907 1.4197066e-038
0.020400913 0.05916898 -0.03062395 5.0446745e-044
0.02247582 0.059167944 -0.030254906 1.8373265e-040
0.024551077 0.059166968 -0.029885771 1.30014e-038
0.026626676 0.059166048 -0.029516533 3.2229865e-044
0.029148296 0.05820534 -0.027282745 1.2725888e-038
0.031004569 0.058684453 -0.027845047 4.6980423e-039
0.032627799 0.059643574 -0.029341416 8.3026724e-039
0.034240946 0.060602739 -0.03083948 6.6395595e-039
0.036310647 0.060602106 -0.03047112 3.8733389e-039
0.039561264 0.058201883 -0.025429629 3.0425146e-039
-0.11882071 0.031944491 -0.0092363246 8.7589786e-039
-0.11725482 0.041101534 -0.025891699 1.0695059e-038
-0.11534292 0.044473823 -0.03179092 1.3833212e-038
-0.11326884 0.045435742 -0.033205144 1.4015081e-038
-0.11112052 0.045433521 -0.032823764 1.4566455e-038
-0.10901783 0.045913368 -0.033341706 1.4565375e-038
-0.10692079 0.046393208 -0.033860661 1.3917488e-038
-0.10482945 0.04687307 -0.034380682 1.2625308e-038
-0.10274374 0.047352903 -0.03490166 1.3546183e-038
-0.10055184 0.046868566 -0.033621348 1.3730574e-038
-0.098413564 0.046866305 -0.033241779 1.4284462e-038
-0.096336827 0.047346126 -0.033764362 1.428518e-038
-0.094265759 0.047825951 -0.034287952 1.4286613e-038
-0.092200339 0.048305772 -0.034812555 1.4379526e-038
-0.090071306 0.048303507 -0.034434639 1.4195135e-038
-0.087942623 0.048301231 -0.034056783 1.4287688e-038
-0.085814208 0.048298962 -0.033678982 1.4287688e-038
-0.083840527 0.049260929 -0.035111137 1.4103297e-038
-0.081718042 0.049258661 -0.034734391 1.4379884e-038
-0.079678379 0.049738504 -0.035263564 1.3734514e-038
-0.077559173 0.049736246 -0.034887388 1.4194415e-038
-0.075440206 0.049733985 -0.034511264 1.4194415e-038
-0.073231079 0.049249608 -0.033227909 1.4010024e-038
-0.071110025 0.049247354 -0.032851405 1.4285536e-038
-0.068989262 0.049245104 -0.03247495 1.4192984e-038
-0.06696716 0.049724996 -0.033007223 1.4097913e-038
-0.064849578 0.049722761 -0.032631323 1.363658e-038
-0.062732205 0.049720541 -0.03225546 1.2345145e-038
-0.06061507 0.049718324 -0.03187963 3.2236465e-039
-0.058716267 0.050680399 -0.033324994 1.4766323e-039
-0.056828316 0.05164253 -0.034772325 1.2011412e-039
-0.054722462 0.051640358 -0.034398481 9.2419417e-040
-0.052499838 0.051156051 -0.033112675 9.2419697e-040
-0.050272088 0.050671719 -0.0318259 6.4760728e-040
-0.048283827 0.051151771 -0.032364175 1.0607563e-038
-0.046301078 0.051631808 -0.032903366 9.8703428e-039
-0.044068526 0.051147554 -0.031615764 3.7206716e-040
-0.042091429 0.051627629 -0.032155938 1.1982503e-039
-0.040119693 0.052107736 -0.032697052 1.1894712e-038
-0.038153458 0.052587859 -0.033239134 9.2210372e-039
-0.036054403 0.052585844 -0.032866403 9.2128928e-040
-0.033955522 0.052583843 -0.032493692 1.3369829e-038
-0.031856686 0.052581869 -0.032120973 5.5339224e-039
-0.029757988 0.052579917 -0.031748265 6.6395497e-039
-0.027808143 0.053060204 -0.032293238 1.2449301e-038
-0.025712209 0.053058304 -0.031920984 4.4841551e-044
-0.023616364 0.053056426 -0.031548738 1.3000692e-038
-0.021520566 0.053054579 -0.031176483 5.1654944e-039
-0.019424772 0.053052761 -0.030804211 1.291141e-039
-0.017491031 0.053533163 -0.031351909 1.4107031e-038
-0.015562635 0.054013595 -0.03190054 1.7521163e-039
-0.013639495 0.054494068 -0.032450084 1.0142275e-038
-0.011211657 0.053527981 -0.030236343 3.6776518e-040
-0.0092910472 0.054008521 -0.030786298 7.5622501e-039
-0.0073757516 0.054489098 -0.031337176 1.1245731e-038
-0.0054657129 0.054969713 -0.031888962 9.2057882e-040
-0.0033802451 0.054968156 -0.031518362 2.7988555e-040
-0.0014779516 0.055448882 -0.032071531 1.2265647e-038
0.00060507283 0.055447407 -0.031701319 1.3865624e-039
0.0026882393 0.055445973 -0.031331059 1.3830045e-039
0.0047715488 0.055444576 -0.030960748 3.0428832e-039
0.0068549998 0.055443227 -0.030590381 1.0152856e-039
0.0089387111 0.055441912 -0.030219948 1.1803594e-038
0.010823393 0.055922862 -0.030776041 4.3440252e-044
0.012703025 0.05640386 -0.031333014 9.2210512e-039
0.014782054 0.056402687 -0.030963322 2.4921981e-039
0.016861346 0.056401554 -0.030593563 4.6103981e-040
0.018940896 0.05640047 -0.030223724 1.0973833e-038
0.021020763 0.056399439 -0.029853802 4.621118e-040
0.022885844 0.056880683 -0.03041321 1.659583e-039
0.024963673 0.056879751 -0.030043587 1.1618124e-038
0.027262267 0.056396641 -0.028743505 4.3440252e-044
0.029566573 0.055913582 -0.02744237 1.3095028e-038
0.031650871 0.055912808 -0.027071493 1.8407008e-039
0.033278875 0.056876555 -0.028564071 9.9596812e-039
0.034896757 0.057840396 -0.030058455 7.3868748e-040
0.036971707 0.057839788 -0.029689137 5.9956348e-039
0.040701434 0.054463547 -0.022787221 1.1993223e-039
-0.11861039 0.030009406 -0.010402171 8.5749419e-039
-0.11701439 0.038726218 -0.026134973 1.0698645e-038
-0.11506403 0.041630439 -0.031127369 1.3831057e-038
-0.11294492 0.042112727 -0.031640865 1.4382064e-038
-0.11078861 0.042110622 -0.031257987 1.4655051e-038
-0.10872371 0.04307732 -0.032670952 1.4192633e-038
-0.10662165 0.043559592 -0.033187497 1.2993009e-038
-0.10457607 0.044526257 -0.034603857 1.3359992e-038
-0.10243446 0.044524137 -0.034223609 1.3453264e-038
-0.10029317 0.044522006 -0.033843424 1.4191904e-038
-0.098152235 0.044519868 -0.033463307 1.428589e-038
-0.096011601 0.044517722 -0.033083245 1.4470282e-038
-0.093935475 0.045000013 -0.033604469 1.4287331e-038
-0.091931805 0.045966685 -0.03502829 1.4103297e-038
-0.089869611 0.046448953 -0.035551943 1.4287688e-038
-0.087740913 0.046446808 -0.035174012 1.4379884e-038
-0.085537761 0.04596024 -0.033893079 1.4287688e-038
-0.083484471 0.046442509 -0.034418315 1.4103294e-038
-0.081356704 0.046440363 -0.034040552 1.4011098e-038
-0.079311989 0.046922676 -0.034567356 1.4287685e-038
-0.077187486 0.046920534 -0.03419017 1.4287685e-038
-0.075151294 0.047402829 -0.034718439 1.3826707e-038
-0.073029995 0.047400691 -0.03434182 1.3734514e-038
-0.070908971 0.047398567 -0.033965241 1.382599e-038
-0.068692207 0.046912003 -0.032681882 1.4101499e-038
-0.06656903 0.046909887 -0.032304917 1.3824912e-038
-0.064446144 0.046907771 -0.031928003 1.3731289e-038
-0.062323511 0.046905667 -0.031551123 1.3360712e-038
-0.060201086 0.046903573 -0.031174276 1.2527755e-038
-0.0582975 0.04787039 -0.03261584 3.6799163e-039
-0.056404755 0.04883723 -0.034059316 1.2929627e-039
-0.054293651 0.048835173 -0.033684466 1.1085826e-039
-0.052065492 0.048348673 -0.03239904 1.2004237e-039
-0.049952127 0.048346635 -0.032023773 2.0305417e-039
-0.047961496 0.048829079 -0.032560065 3.7826104e-039
-0.046101585 0.049796045 -0.034009386 4.335787e-039
-0.043868829 0.049309589 -0.03272311 2.0305417e-039
-0.041761484 0.049307622 -0.032348871 2.1220129e-039
-0.039654247 0.04930567 -0.031974643 4.7963966e-039
-0.037818782 0.050272696 -0.033428211 4.612004e-039
-0.035717122 0.050270788 -0.033054948 2.5829812e-039
-0.033615597 0.050268896 -0.0326817 5.7179872e-039
-0.031514168 0.05026703 -0.032308452 4.2432214e-039
-0.029412838 0.050265178 -0.031935208 8.3090833e-040
-0.027460635 0.050747849 -0.03247821 7.0101749e-039
-0.025362115 0.050746053 -0.032105438 8.3001697e-039
-0.023263669 0.050744276 -0.031732664 1.0696878e-038
-0.02132225 0.051227048 -0.032277588 1.8552631e-040
-0.019066831 0.050740801 -0.03098708 8.2068866e-039
-0.017130759 0.051223636 -0.031532917 1.337055e-038
-0.015035039 0.051221974 -0.03116056 5.348469e-039
-0.013106903 0.051704846 -0.031707723 1.1156791e-038
-0.010843521 0.051218733 -0.030415777 8.3901933e-039
-0.0089206155 0.051701672 -0.030963833 1.1710305e-038
-0.0068274327 0.05170013 -0.030591853 1.1895435e-038
-0.0047341655 0.051698625 -0.030219832 2.7662935e-039
-0.0028216583 0.052181665 -0.030769674 1.5673986e-039
-0.00091431895 0.052664749 -0.031320412 1.0973843e-038
0.00117392 0.052663349 -0.030949224 8.327034e-040
0.0032623305 0.052661989 -0.03057798 1.3848038e-039
0.0053509129 0.052660663 -0.030206682 8.7608073e-039
0.0070513738 0.053628456 -0.031683899 3.3216211e-039
0.0091350181 0.053627215 -0.031313431 6.3633538e-039
0.011019416 0.054110542 -0.0318681 6.0874759e-039
0.013100794 0.05410938 -0.031497989 9.4994233e-039
0.0149777 0.054592796 -0.03205394 4.6284608e-040
0.017056925 0.054591723 -0.031684153 1.1996923e-039
0.01934645 0.054106165 -0.030387204 2.7695193e-039
0.021428892 0.054105185 -0.030016789 7.1019824e-039
0.023296332 0.054588787 -0.030574309 9.5908987e-039
0.025376771 0.054587901 -0.030204197 2.7736881e-040
0.027457554 0.054587062 -0.029833985 6.9172478e-039
0.029762017 0.054101735 -0.028534234 1.2634412e-038
0.031846251 0.054101001 -0.028163344 3.7822195e-039
0.03370231 0.054584853 -0.028722739 8.2994494e-039
0.035322297 0.055553313 -0.030213809 2.4907716e-039
0.037399825 0.055552736 -0.029844016 9.1310065e-039
0.041843563 0.050706729 -0.02015595 4.0584616e-039
-0.1185301 0.030021029 -0.01514457 8.575302e-039
-0.11684387 0.037319571 -0.028170269 1.1250737e-038
-0.11489769 0.040237825 -0.033154685 1.3368637e-038
-0.11270057 0.03974916 -0.031876132 1.4102956e-038
-0.11058473 0.040233877 -0.032388706 1.4468142e-038
-0.10847457 0.04071863 -0.032902338 1.2715344e-038
-0.10641851 0.041690052 -0.034313869 1.3175601e-038
-0.10437343 0.042661481 -0.035727352 1.4096837e-038
-0.10223185 0.04265948 -0.035347033 1.455961e-038
-0.10009056 0.042657476 -0.034966774 1.4468847e-038
-0.097949624 0.042655464 -0.034586571 1.4378086e-038
-0.095809005 0.042653449 -0.034206435 1.4194415e-038
-0.093668744 0.04265143 -0.033826366 1.4195493e-038
-0.091595858 0.043136157 -0.034346651 1.4472079e-038
-0.08952862 0.043620862 -0.03486789 1.4286968e-038
-0.087394617 0.043618843 -0.034488931 1.4011101e-038
-0.085260928 0.04361682 -0.034110036 1.4103297e-038
-0.083205268 0.044101529 -0.034633331 1.4287685e-038
-0.081155181 0.044586249 -0.035157617 1.4472077e-038
-0.079027735 0.04458423 -0.034779828 1.4103294e-038
-0.076729268 0.043608725 -0.032594994 1.419549e-038
-0.074685387 0.044093452 -0.033120379 1.3826707e-038
-0.072647117 0.044578187 -0.033646762 1.3642316e-038
-0.070614435 0.045062959 -0.034174182 1.3918185e-038
-0.068298474 0.044087425 -0.031986181 1.4010024e-038
-0.066170029 0.044085421 -0.031608202 1.4193695e-038
-0.064041868 0.044083428 -0.031230271 1.4007876e-038
-0.062122434 0.045055002 -0.032666124 1.3268873e-038
-0.059893142 0.044566229 -0.031381842 1.3450407e-038
-0.05787788 0.045051061 -0.031912327 7.3640911e-039
-0.055980362 0.046022646 -0.033352006 2.396062e-039
-0.053978808 0.046507478 -0.033884868 1.1089372e-039
-0.051865265 0.046505552 -0.0335095 1.1082281e-039
-0.04975196 0.046503641 -0.033134162 1.1085882e-039
-0.047761604 0.046988517 -0.033668995 1.0167499e-039
-0.045776758 0.047473438 -0.034204844 1.0167499e-039
-0.043669239 0.047471575 -0.033830505 1.0174702e-039
-0.04156192 0.04746972 -0.033456206 1.1089456e-039
-0.039321296 0.046981066 -0.032169826 1.016387e-039
-0.037347667 0.047466069 -0.032707624 9.2419137e-040
-0.03524074 0.047464266 -0.032333359 1.3844493e-039
-0.033275321 0.047949277 -0.03287255 1.1082169e-039
-0.03117129 0.047947519 -0.032498773 1.1082155e-039
-0.029213991 0.048432574 -0.033039376 1.2004125e-039
-0.027112762 0.048430853 -0.032666076 5.5468858e-040
-0.025011655 0.048429161 -0.032292776 7.3907844e-040
-0.022910552 0.048427485 -0.031919464 1.2014733e-039
-0.020809494 0.048425842 -0.031546146 3.9680513e-039
-0.018868433 0.04891102 -0.032089569 1.476998e-039
-0.01677008 0.048909433 -0.031716701 1.3844493e-039
-0.01467176 0.048907861 -0.031343821 1.3837276e-039
-0.012573414 0.048906319 -0.030970922 7.3799243e-040
-0.01030454 0.048417985 -0.02967938 5.5346287e-039
-0.0083766412 0.048903316 -0.030225053 1.4773147e-039
-0.0064539872 0.049388714 -0.030771689 6.4578279e-040
-0.0045365407 0.049874119 -0.031319182 1.4752029e-039
-0.0024432275 0.04987273 -0.030947082 1.5681188e-039
-0.00034982897 0.04987137 -0.030574949 9.245487e-040
0.001743682 0.049870051 -0.030202772 9.2419417e-040
0.0036482634 0.050355595 -0.030752469 1.1085826e-039
0.0057394495 0.050354343 -0.030380663 1.10894e-039
0.0076364223 0.050839968 -0.030931666 9.245459e-040
0.009725254 0.050838791 -0.030560236 1.2004125e-039
0.011614678 0.051324487 -0.031112535 9.245459e-040
0.013701328 0.051323399 -0.030741436 7.3980011e-040
0.015788181 0.051322341 -0.030370282 1.2007783e-039
0.017460067 0.052295029 -0.031849544 2.3096061e-039
0.019752415 0.051807221 -0.030553496 2.4936274e-039
0.021624565 0.052293137 -0.031108739 3.7843564e-039
0.023491662 0.052779093 -0.03166486 4.6389705e-040
0.025572065 0.052778259 -0.031294711 7.4051757e-040
0.027652815 0.052777469 -0.030924479 6.4868488e-040
0.029733913 0.052776724 -0.030554157 6.4760728e-040
0.032041606 0.05228918 -0.029255209 6.4760728e-040
0.034355015 0.051801689 -0.027955215 8.3199854e-040
0.036211256 0.052287936 -0.028513085 7.3980291e-040
0.038296707 0.052287385 -0.028141862 6.4760448e-040
0.042750839 0.047418326 -0.018466281 9.245487e-040
-0.11832105 0.028095026 -0.016304998 7.8373768e-039
-0.11663858 0.035428468 -0.029309664 1.1250372e-038
-0.11469392 0.038360745 -0.034285631 1.4007888e-038
-0.11249656 0.037869886 -0.033008404 1.4006804e-038
-0.11033758 0.037868034 -0.032624893 1.3636226e-038
-0.10822503 0.038355187 -0.033136532 1.2990135e-038
-0.10611811 0.03884238 -0.033649225 1.3911368e-038
-0.10406823 0.039818563 -0.035058897 1.4004641e-038
-0.10197534 0.040305711 -0.035574041 1.4191184e-038
-0.099831395 0.040303834 -0.035193227 1.4653237e-038
-0.097687811 0.040301949 -0.03481248 1.4654671e-038
-0.095482536 0.039811023 -0.033533886 1.4379164e-038
-0.093401626 0.040298171 -0.034051172 1.4379164e-038
-0.091326341 0.040785313 -0.034569457 1.4379884e-038
-0.089256711 0.041272491 -0.0350888 1.4287688e-038
-0.087120079 0.041270591 -0.034709297 1.4379884e-038
-0.084908456 0.040779613 -0.033429533 1.4195493e-038
-0.082925662 0.041755848 -0.034851201 1.3734512e-038
-0.080792628 0.041753955 -0.034472339 1.419549e-038
-0.07865987 0.041752055 -0.034093525 1.382671e-038
-0.076441512 0.041261103 -0.032812614 1.382671e-038
-0.074395254 0.04174827 -0.033336058 1.4287685e-038
-0.072354592 0.042235449 -0.033860497 1.4011098e-038
-0.070319504 0.042722628 -0.03438592 1.4102577e-038
-0.068000436 0.041742619 -0.032200217 1.4194415e-038
-0.065968528 0.042229816 -0.032726202 1.4009303e-038
-0.063840412 0.042227946 -0.032348201 1.3639446e-038
-0.061816964 0.042715162 -0.032875676 1.3915317e-038
-0.059691943 0.042713314 -0.032498218 1.3634784e-038
-0.057567187 0.042711474 -0.032120798 1.2989071e-038
-0.055555087 0.043198749 -0.032650325 2.6697412e-039
-0.053548511 0.04368601 -0.033180781 1.3844366e-039
-0.051429685 0.043684207 -0.0328044 1.0174716e-039
-0.049431477 0.044171497 -0.033336326 9.2527457e-040
-0.047315709 0.044169709 -0.032960474 9.2527457e-040
-0.045451555 0.04514613 -0.034403089 5.5721232e-040
-0.043469775 0.045633502 -0.034937963 1.0174702e-039
-0.041362487 0.045631766 -0.034563594 8.3307894e-040
-0.039121639 0.045140915 -0.033278544 5.5649205e-040
-0.03687568 0.044650108 -0.031992622 1.1089456e-039
-0.03490245 0.045137517 -0.032528926 1.2007811e-039
-0.032934658 0.045624979 -0.033066235 1.293327e-039
-0.030972265 0.046112441 -0.033604443 2.215991e-039
-0.028868347 0.046110809 -0.033230606 1.6624641e-039
-0.026914068 0.046598308 -0.03377023 1.2922522e-039
-0.02466077 0.046107605 -0.032482937 1.383729e-039
-0.022557067 0.04610604 -0.0321091 1.5713194e-039
-0.020610951 0.046593603 -0.032650135 4.6162667e-039
-0.018509965 0.046592087 -0.032276753 1.1092917e-039
-0.016246216 0.046101466 -0.030987548 1.2007811e-039
-0.014142625 0.046099991 -0.030613672 2.2152833e-039
-0.012207114 0.046587665 -0.031156531 7.3942036e-040
-0.010106139 0.046586245 -0.030783087 1.1715655e-038
-0.0080051385 0.046584852 -0.030409621 4.2446129e-039
-0.0059040808 0.046583481 -0.030036131 1.5681076e-039
-0.0039816387 0.047071278 -0.030581243 1.291532e-039
-0.0020644432 0.047559138 -0.031127322 1.7528646e-039
0.00021558814 0.0470687 -0.029835034 1.4766435e-039
0.0021277007 0.047556624 -0.030381978 1.1078624e-039
0.0042239288 0.047555413 -0.030009247 1.2007811e-039
0.0061283964 0.048043378 -0.030557457 1.1085826e-039
0.0082223285 0.048042238 -0.030185094 1.0163758e-039
0.010316463 0.048041135 -0.029812673 1.8461351e-039
0.012210855 0.048529208 -0.03036261 9.245487e-040
0.014100166 0.049017325 -0.030913429 7.3980011e-040
0.015984427 0.04950548 -0.031465121 1.10894e-039
0.017863646 0.049993701 -0.032017738 4.7992412e-039
0.02015884 0.04950361 -0.030722536 4.6461452e-040
0.022033326 0.049991921 -0.031275947 1.0517116e-038
0.024118626 0.049991086 -0.030904926 3.0478522e-039
0.026204219 0.049990296 -0.030533832 9.2490883e-040
0.028069118 0.050478704 -0.031088814 5.5649205e-040
0.03015282 0.050478004 -0.030717999 5.5648925e-040
0.03223696 0.050477348 -0.030347081 5.5648925e-040
0.034550555 0.049987581 -0.029048469 8.3235587e-040
0.036406457 0.050476171 -0.029604942 4.6429362e-040
0.038726263 0.049986497 -0.028305158 5.5649205e-040
0.043659598 0.044116039 -0.01678491 7.4016024e-040
-0.11814511 0.026660282 -0.018356802 8.2050818e-039
-0.1164691 0.034028612 -0.031340927 1.133608e-038
-0.11445198 0.035992261 -0.034524389 1.3541159e-038
-0.11229268 0.035990544 -0.034140736 1.3540079e-038
-0.11013372 0.035988811 -0.033757154 1.2066029e-038
-0.10802139 0.036478415 -0.03426731 1.3080179e-038
-0.10591476 0.036968049 -0.034778539 1.3542586e-038
-0.10381378 0.037457645 -0.035290718 1.4189033e-038
-0.10171846 0.037947245 -0.035803907 1.4559963e-038
-0.099628814 0.038436841 -0.036318116 1.428517e-038
-0.097485229 0.038435087 -0.035937287 1.4470636e-038
-0.09534198 0.038433321 -0.035556525 1.4562832e-038
-0.093199074 0.038431559 -0.035175823 1.4562476e-038
-0.091056496 0.038429789 -0.03479518 1.4286968e-038
-0.088984437 0.038919382 -0.035312518 1.4194772e-038
-0.086772293 0.03842625 -0.034034073 1.4194415e-038
-0.084630661 0.038424477 -0.033653602 1.4010024e-038
-0.082567513 0.038914073 -0.034172527 1.4286968e-038
-0.080429204 0.0389123 -0.033792648 1.4102577e-038
-0.078374654 0.03940193 -0.034313153 1.3918906e-038
-0.076153383 0.038908765 -0.033033036 1.4011101e-038
-0.074104734 0.039398402 -0.033554584 1.4011101e-038
-0.071970224 0.039396636 -0.033175379 1.4103297e-038
-0.069930106 0.039886262 -0.033698387 1.4102577e-038
-0.067798801 0.039884511 -0.033319749 1.4193695e-038
-0.065866627 0.040865526 -0.034747384 1.4378086e-038
-0.06363906 0.040372405 -0.033466183 1.4284814e-038
-0.061615899 0.040862061 -0.033992194 1.3914594e-038
-0.059490919 0.04086034 -0.033614665 1.3821325e-038
-0.057366166 0.040858623 -0.033237167 1.3266001e-038
-0.055128936 0.040365517 -0.031954229 8.3800577e-039
-0.05323267 0.041346639 -0.033388268 2.3963941e-039
-0.051229261 0.041836351 -0.03391777 1.0163898e-039
-0.049231332 0.042326078 -0.034448229 9.2527597e-040
-0.046992257 0.041833013 -0.033164941 8.3307894e-040
-0.045000002 0.04232277 -0.033696398 8.3308034e-040
-0.043013223 0.042812537 -0.034228824 9.2527597e-040
-0.040769417 0.042319506 -0.032944672 8.3308034e-040
-0.038654312 0.042317897 -0.032568824 5.5649205e-040
-0.03653938 0.042316299 -0.032193005 1.0167499e-039
-0.034703005 0.043297552 -0.033637565 1.2007811e-039
-0.032735504 0.043787442 -0.034173418 6.8289618e-039
-0.030773338 0.044277318 -0.034710161 4.8009985e-039
-0.02852235 0.043784376 -0.033424672 1.0148344e-038
-0.026565678 0.044274293 -0.033962369 1.2014733e-039
-0.024309531 0.043781385 -0.032675941 1.4759232e-039
-0.022358332 0.04427135 -0.033214584 4.7084469e-039
-0.020096969 0.043778479 -0.031927202 7.2920643e-039
-0.017990712 0.043777056 -0.031552818 1.4762791e-039
-0.015884517 0.043775652 -0.031178433 1.4759232e-039
-0.013944007 0.04426571 -0.031718925 2.1251854e-039
-0.012008814 0.04475579 -0.03226034 8.7646623e-039
-0.0099079078 0.044754464 -0.031886853 1.162308e-038
-0.0079805544 0.045244604 -0.032429632 1.0167023e-039
-0.0057059005 0.044751894 -0.031139785 1.5677503e-039
-0.0037837452 0.045242086 -0.03168346 2.7712639e-039
-0.0016852277 0.045240872 -0.031310324 8.2122256e-039
0.00041340478 0.04523968 -0.030937158 9.2263747e-039
0.0025121216 0.045238517 -0.030563952 3.3247936e-039
0.0044214213 0.045728862 -0.031109892 1.3840835e-039
0.0063256025 0.046219215 -0.031656664 3.7829397e-039
0.008419469 0.046218153 -0.031284273 7.8430857e-039
0.010513536 0.046217121 -0.030911813 8.765042e-039
0.012407643 0.046707578 -0.031460322 2.9535336e-039
0.01429667 0.047198065 -0.032009713 1.3840821e-039
0.016386092 0.047197141 -0.031638026 1.3840821e-039
0.018475741 0.047196247 -0.031266265 1.6610235e-039
0.020354899 0.047686853 -0.031817347 4.6320061e-040
0.022442516 0.047686033 -0.031445909 1.1162486e-038
0.024530426 0.047685254 -0.031074394 3.232242e-039
0.026837386 0.047193054 -0.029778469 7.4016024e-040
0.028707255 0.047683816 -0.030331105 4.6501669e-040
0.030796235 0.047683157 -0.029959321 6.4868768e-040
0.032885622 0.047682542 -0.029587444 6.4868768e-040
0.034975357 0.047681965 -0.029215479 6.4868768e-040
0.036833625 0.048172932 -0.029770121 8.3307894e-040
0.039390918 0.047189482 -0.027544046 8.3307614e-040
0.044569809 0.040799893 -0.015111903 1.0171045e-039
-0.11790337 0.024242798 -0.018626064 8.1132435e-039
-0.11619257 0.031152371 -0.030698303 1.0408363e-038
-0.11417115 0.033125412 -0.033875156 1.2248991e-038
-0.11200652 0.033123817 -0.033490475 1.1511066e-038
-0.10988609 0.033615869 -0.03399767 1.225042e-038
-0.10777137 0.034107916 -0.034505881 1.3356768e-038
-0.10566233 0.03459996 -0.035015106 1.4003564e-038
-0.10345523 0.034104683 -0.033738896 1.4834402e-038
-0.10140671 0.035090413 -0.035142943 1.4652159e-038
-0.099254817 0.035088785 -0.03476055 1.4377366e-038
-0.097103268 0.035087153 -0.034378231 1.437844e-038
-0.094952047 0.035085514 -0.033995971 1.437844e-038
-0.092866361 0.035577543 -0.034509361 1.4562832e-038
-0.090786271 0.036069579 -0.035023753 1.4286245e-038
-0.088711828 0.036561612 -0.03553915 1.4193693e-038
-0.086569905 0.036559969 -0.035158545 1.4102219e-038
-0.084352508 0.036064647 -0.033880524 1.4286611e-038
-0.082208537 0.036063008 -0.033499558 1.4471002e-038
-0.080146 0.036555044 -0.034017075 1.4378806e-038
-0.078005299 0.036553405 -0.033636689 1.4011101e-038
-0.07595133 0.037045449 -0.034155726 1.4011101e-038
-0.073902979 0.03753753 -0.03467581 1.3918548e-038
-0.071860187 0.038029596 -0.035196826 1.4102219e-038
-0.069728605 0.038027965 -0.034818061 1.4102219e-038
-0.06759733 0.038026344 -0.03443934 1.4193695e-038
-0.0654663 0.038024724 -0.034060668 1.4101499e-038
-0.06333553 0.038023114 -0.033682033 1.4284451e-038
-0.061309978 0.038515206 -0.0342061 1.4467768e-038
-0.059182391 0.038513605 -0.033828028 1.3729129e-038
-0.057165302 0.039005719 -0.034353592 1.3081965e-038
-0.054927837 0.038510427 -0.03307198 1.0961872e-038
-0.05291649 0.039002564 -0.03359855 2.8548401e-039
-0.050910696 0.039494742 -0.034126159 1.10894e-039
-0.048910417 0.039986901 -0.034654692 8.3307894e-040
-0.046791997 0.039985359 -0.034278214 1.0167499e-039
-0.044673819 0.039983824 -0.033901773 8.3308034e-040
-0.042555802 0.039982304 -0.033525355 7.4088471e-040
-0.040437978 0.039980799 -0.033148959 8.3308034e-040
-0.038320243 0.039979309 -0.032772575 7.4088471e-040
-0.036339507 0.040471554 -0.033304539 8.3235868e-040
-0.034364205 0.040963814 -0.033837456 1.1089456e-039
-0.032394335 0.041456096 -0.034371331 2.4018017e-039
-0.030285066 0.041454665 -0.033996414 4.8928536e-039
-0.028175922 0.041453253 -0.033621509 9.6887934e-039
-0.026066883 0.041451856 -0.033246614 1.3851569e-039
-0.024110621 0.041944243 -0.033782918 1.6603145e-039
-0.022004344 0.041942887 -0.033408489 8.3040779e-039
-0.019898096 0.041941546 -0.033034056 3.5102597e-039
-0.017631236 0.041446455 -0.031747006 1.4759232e-039
-0.015685726 0.041938927 -0.032285169 1.7521444e-039
-0.013579573 0.041937649 -0.031910714 1.0608955e-038
-0.011641968 0.042430144 -0.032450207 5.6310885e-039
-0.0095384605 0.042428911 -0.032076195 1.097879e-038
-0.0074348692 0.042427704 -0.03170215 1.0167149e-039
-0.005331249 0.042426519 -0.03132809 1.3840821e-039
-0.0034067403 0.042919111 -0.031869851 4.2471142e-039
-0.0013056211 0.042917982 -0.031496201 5.1697698e-039
0.00079561351 0.042916872 -0.031122515 1.0056138e-038
0.0027098139 0.043409556 -0.031666059 1.572369e-039
0.0046188277 0.043902293 -0.032210562 1.2922522e-039
0.0067151529 0.043901272 -0.031837694 4.8907138e-039
0.0084214238 0.044887803 -0.033302154 4.985024e-039
0.010710523 0.044393085 -0.032010984 1.0424563e-038
0.012403935 0.045379683 -0.033477686 1.2011062e-039
0.014899189 0.044391263 -0.031265825 1.6606704e-039
0.016788134 0.04488416 -0.031813733 2.1220031e-039
0.019088781 0.044389568 -0.03052043 3.1379347e-039
0.020972993 0.044882536 -0.031069137 2.4911247e-039
0.023065858 0.044881776 -0.030696724 1.0516407e-038
0.025158983 0.044881053 -0.030324245 1.1103413e-039
0.027252456 0.04488036 -0.029951684 5.5721232e-040
0.029346336 0.044879712 -0.029579028 4.6501669e-040
0.031216299 0.045372866 -0.030130159 6.4868768e-040
0.033308234 0.045372292 -0.0297578 5.5649205e-040
0.035400636 0.045371756 -0.02938533 7.4088331e-040
0.037261225 0.045865033 -0.029938057 5.5721232e-040
0.040291429 0.043889485 -0.025862789 8.3307614e-040
-0.1177282 0.022812545 -0.020675216 7.8366566e-039
-0.11598746 0.029258728 -0.031839311 9.3938579e-039
-0.11396702 0.031241169 -0.035010494 1.02207e-038
-0.11180239 0.031239701 -0.034625735 1.0221056e-038
-0.10968225 0.031734202 -0.035131454 1.1973482e-038
-0.107521 0.031732719 -0.03474731 1.3541159e-038
-0.10536011 0.031731233 -0.034363233 1.3911368e-038
-0.10319954 0.031729735 -0.033979215 1.4650367e-038
-0.10109411 0.032224219 -0.034487568 1.4652516e-038
-0.098936908 0.032222718 -0.034104157 1.4192974e-038
-0.096780047 0.032221213 -0.03372081 1.4562476e-038
-0.094686255 0.032715689 -0.034231238 1.4562832e-038
-0.092598163 0.033210196 -0.034742735 1.437844e-038
-0.090515681 0.033704676 -0.035255179 1.437844e-038
-0.088438861 0.034199156 -0.035768632 1.4378085e-038
-0.086294271 0.034197643 -0.035387471 1.4379164e-038
-0.084150039 0.034196131 -0.035006378 1.4194772e-038
-0.081927389 0.033698618 -0.033728778 1.4471359e-038
-0.079943791 0.034689106 -0.035141371 1.4194772e-038
-0.07771913 0.03419159 -0.033863418 1.4286968e-038
-0.075749427 0.035182085 -0.035278477 1.4194772e-038
-0.073522672 0.034684576 -0.034000143 1.4286611e-038
-0.07156685 0.035675108 -0.035417721 1.4562477e-038
-0.069432631 0.035673615 -0.035038397 1.3732717e-038
-0.067395993 0.036168128 -0.035558991 1.4009303e-038
-0.065165043 0.035670623 -0.034279909 1.4008583e-038
-0.062929019 0.035173099 -0.032999873 1.4284451e-038
-0.060898475 0.035667658 -0.033521585 1.3914951e-038
-0.058873482 0.036162201 -0.034044232 1.3820606e-038
-0.05696455 0.037152775 -0.035470068 1.3541865e-038
-0.054726895 0.036655296 -0.034189776 1.2341552e-038
-0.052715793 0.037149869 -0.034714885 5.4294472e-039
-0.050591759 0.037148431 -0.034337342 2.6711958e-039
-0.048831441 0.038635105 -0.036672194 9.2455431e-040
-0.046715681 0.038633689 -0.036296111 9.2455431e-040
-0.04447373 0.038136251 -0.035015028 7.4052879e-040
-0.042226635 0.037638821 -0.033733025 7.4052879e-040
-0.040106181 0.037637435 -0.033356093 8.3308034e-040
-0.037985831 0.037636057 -0.032979168 7.4088471e-040
-0.036002733 0.038130727 -0.033509199 7.4088471e-040
-0.034025036 0.038625419 -0.034040179 8.3307894e-040
-0.032052796 0.039120123 -0.034572124 8.3307614e-040
-0.029940903 0.039118808 -0.034196671 1.2011412e-039
-0.027681477 0.038621463 -0.032912418 1.0167499e-039
-0.025717476 0.039116219 -0.033445802 9.2419697e-040
-0.023758829 0.039610989 -0.033980124 7.4088331e-040
-0.021649966 0.039609738 -0.033605166 9.2489903e-040
-0.019382831 0.039112456 -0.032319505 1.9386838e-039
-0.017432302 0.039607286 -0.032855239 1.1082155e-039
-0.015323518 0.039606091 -0.032480262 1.6624655e-039
-0.013214707 0.039604913 -0.032105271 1.5691838e-039
-0.011105927 0.039603755 -0.031730272 1.0149339e-039
-0.0091686314 0.040098708 -0.03226836 1.2915207e-039
-0.0072366004 0.040593654 -0.03280732 1.4766337e-039
-0.0051330202 0.040592562 -0.032433204 1.2926082e-039
-0.0030293255 0.040591497 -0.032059055 1.385524e-039
-0.00092557492 0.04059045 -0.031684883 1.2936815e-039
0.00099350652 0.041085497 -0.032226089 1.293327e-039
0.0029073919 0.041580565 -0.032768197 1.1085826e-039
0.0048160907 0.042075694 -0.033311274 1.016387e-039
0.0069123777 0.042074759 -0.032938369 1.4769994e-039
0.0088134911 0.042569917 -0.033482704 1.3855128e-039
0.010907454 0.04256903 -0.033110172 1.5695482e-039
0.013001621 0.042568177 -0.03273759 1.200058e-039
0.015299344 0.042071279 -0.031446237 1.3833731e-039
0.017190646 0.042566553 -0.031992245 1.2918977e-039
0.019285535 0.042565785 -0.031619478 1.2011314e-039
0.021169405 0.04306113 -0.032166772 1.3851583e-039
0.023262266 0.043060429 -0.031794332 9.2419417e-040
0.025355354 0.043059755 -0.031421825 9.2455431e-040
0.027448792 0.043059122 -0.031049231 6.4868768e-040
0.029542606 0.043058518 -0.030676555 7.4088331e-040
0.031636771 0.043057952 -0.030303791 4.6501669e-040
0.033731371 0.043057419 -0.029930934 4.6501669e-040
0.035826351 0.043056924 -0.029557984 4.6501669e-040
0.037921794 0.043056462 -0.029184924 5.5721232e-040
0.041193448 0.040575605 -0.02418983 7.4088051e-040
-0.1175537 0.021386862 -0.022721644 7.9274089e-039
-0.11574609 0.026866741 -0.03209278 9.3938551e-039
-0.11372403 0.028858576 -0.035257835 1.0496932e-038
-0.11155675 0.028857235 -0.034872524 1.0128504e-038
-0.10938981 0.028855886 -0.034487288 1.178909e-038
-0.10722323 0.028854532 -0.034102112 1.2711398e-038
-0.10505701 0.028853174 -0.033717003 1.3542586e-038
-0.10289114 0.028851807 -0.033331964 1.4281228e-038
-0.10078064 0.029348731 -0.033837892 1.4651086e-038
-0.09867581 0.029845657 -0.034344837 1.4192974e-038
-0.096576624 0.030342583 -0.03485278 1.4193693e-038
-0.094420142 0.030341204 -0.034469418 1.4655026e-038
-0.092263952 0.030339826 -0.034086112 1.4655027e-038
-0.090176426 0.030836746 -0.034596138 1.4839417e-038
-0.088094562 0.0313337 -0.035107225 1.4655027e-038
-0.086018309 0.031830624 -0.035619251 1.4654671e-038
-0.083947696 0.032327555 -0.036132291 1.437844e-038
-0.081724823 0.03182786 -0.03485601 1.437844e-038
-0.079660147 0.032324791 -0.035370104 1.4378085e-038
-0.077516831 0.032323413 -0.034989089 1.4102574e-038
-0.075373836 0.032322034 -0.034608129 1.4194772e-038
-0.073231108 0.032320656 -0.034227222 1.4285889e-038
-0.071273111 0.033315923 -0.035641398 1.4009303e-038
-0.069136277 0.033314552 -0.035261534 1.4009303e-038
-0.066999733 0.033313185 -0.034881718 1.4193695e-038
-0.064763218 0.032813497 -0.033603005 1.4192974e-038
-0.062624551 0.032812137 -0.033222806 1.3915669e-038
-0.060591601 0.03330911 -0.033742525 1.4467405e-038
-0.058564216 0.033806123 -0.034263279 1.4280508e-038
-0.056763951 0.035299778 -0.036586605 1.2897939e-038
-0.054526046 0.034800116 -0.035307627 1.2157518e-038
-0.052399132 0.034798793 -0.034929499 5.2439769e-039
-0.05027248 0.034797475 -0.034551416 2.5793519e-039
-0.04838885 0.035792876 -0.035978828 1.1085854e-039
-0.046515983 0.036788259 -0.037408099 1.0167499e-039
-0.044147082 0.035790291 -0.035224687 6.4868909e-040
-0.041897081 0.035290636 -0.033943478 8.3308034e-040
-0.039641969 0.034791023 -0.032661404 5.5721372e-040
-0.037651051 0.03528811 -0.03318854 6.4940935e-040
-0.035665561 0.035785243 -0.033716686 5.5721372e-040
-0.033685483 0.036282361 -0.034245733 7.4052879e-040
-0.031568263 0.036281139 -0.03386927 7.4052879e-040
-0.02930587 0.035781581 -0.032585867 8.3308034e-040
-0.0271862 0.035780385 -0.032208949 9.2419697e-040
-0.025217118 0.036277562 -0.032739922 8.3200135e-040
-0.023406675 0.037273116 -0.034180209 9.2527597e-040
-0.021295197 0.037271969 -0.033804726 1.0170961e-039
-0.01918372 0.03727084 -0.033429224 6.0835341e-039
-0.017072305 0.037269726 -0.03305373 5.0715388e-039
-0.014960891 0.037268631 -0.032678224 5.3484802e-039
-0.012849507 0.037267558 -0.032302711 8.3161879e-040
-0.010738096 0.037266493 -0.031927183 8.760443e-039
-0.0086266883 0.037265453 -0.031551644 2.2149176e-039
-0.0066896342 0.037762802 -0.032088213 6.1796856e-039
-0.0045807539 0.037761807 -0.031713098 3.228715e-039
-0.0026515587 0.038259231 -0.03225109 2.7684613e-039
-0.00054520601 0.038258273 -0.0318764 3.2294352e-039
0.0011912561 0.039254088 -0.033329707 2.2152847e-039
0.0032925287 0.039253183 -0.032955889 2.3071258e-039
0.0052036014 0.039750673 -0.033496998 1.2011356e-039
0.0073025213 0.039749812 -0.033123575 4.5208901e-039
0.0094015552 0.039748978 -0.032750111 1.10857e-039
0.011500821 0.039748169 -0.032376591 4.7038451e-039
0.01360023 0.039747383 -0.03200303 1.3840933e-039
0.015903449 0.039248243 -0.030712092 1.0163926e-039
0.017799774 0.039745897 -0.031255729 1.1085854e-039
0.019899968 0.039745197 -0.030881973 1.016387e-039
0.021577317 0.040741317 -0.03234569 8.3199854e-040
0.023672752 0.040740676 -0.031972751 9.2419697e-040
0.025768446 0.040740058 -0.031599745 7.4088331e-040
0.02764504 0.041237861 -0.032146808 7.4088331e-040
0.029738823 0.041237313 -0.031774104 8.3307894e-040
0.031832952 0.041236792 -0.031401314 7.4088331e-040
0.034154922 0.040737912 -0.030106876 6.4940795e-040
0.036252532 0.040737458 -0.029733429 4.6501669e-040
0.038583323 0.040238649 -0.028437369 4.6501669e-040
0.042332251 0.036749475 -0.021602258 7.4088051e-040
-0.11734586 0.019465156 -0.023879614 7.467151e-039
-0.11554101 0.024970662 -0.033235312 9.8541074e-039
-0.11348064 0.026471265 -0.03550797 1.0497288e-038
-0.11131071 0.02647005 -0.035122111 9.9444687e-039
-0.1091411 0.026468828 -0.034736313 1.1880929e-038
-0.1069719 0.026467603 -0.034350593 1.3264218e-038
-0.10480301 0.026466371 -0.033964932 1.3818098e-038
-0.10268711 0.026965778 -0.034468427 1.4003921e-038
-0.10057688 0.027465152 -0.034972884 1.4189389e-038
-0.098530218 0.028465144 -0.036368325 1.4284455e-038
-0.096433982 0.028964516 -0.036875274 1.4100779e-038
-0.094343409 0.029463923 -0.037383284 1.4101498e-038
-0.092060737 0.028461408 -0.035217986 1.4285889e-038
-0.089836307 0.027959537 -0.033942781 1.4470636e-038
-0.087820604 0.028959529 -0.03534374 1.4194049e-038
-0.085741974 0.029458933 -0.035853881 1.437844e-038
-0.083745524 0.030458935 -0.03725826 1.4655027e-038
-0.081443213 0.029456431 -0.03508953 1.4470635e-038
-0.079376146 0.029955808 -0.035601676 1.4470635e-038
-0.077145681 0.029453926 -0.034325406 1.4101852e-038
-0.075084537 0.029953308 -0.034838602 1.3733794e-038
-0.072939187 0.029952062 -0.03445714 1.4009302e-038
-0.070794106 0.029950816 -0.03407573 1.4193695e-038
-0.068744428 0.030450214 -0.03459096 1.4378086e-038
-0.066700369 0.030949613 -0.035107192 1.3824912e-038
-0.064561427 0.03094838 -0.034726866 1.4008583e-038
-0.062319688 0.030446507 -0.033448577 1.4468122e-038
-0.060178611 0.030445281 -0.033067867 1.4006069e-038
-0.058146201 0.030944701 -0.033586159 1.3635139e-038
-0.056230336 0.031944811 -0.035004899 1.3449672e-038
-0.054097958 0.031943604 -0.034625728 1.2434091e-038
-0.051965788 0.031942401 -0.034246594 8.1027645e-039
-0.049833812 0.031941209 -0.033867478 2.8555744e-039
-0.047945403 0.032941326 -0.035291038 1.2011356e-039
-0.045819148 0.032940149 -0.034912936 8.3235587e-040
-0.043566111 0.03243833 -0.033632606 9.2527597e-040
-0.041437581 0.032437168 -0.033254091 6.4905342e-040
-0.03917696 0.03193536 -0.031972401 5.5685779e-040
-0.037315872 0.032935537 -0.033400789 7.4052879e-040
-0.035328031 0.033435069 -0.033926956 8.3308034e-040
-0.033345606 0.033934645 -0.034454126 9.2419697e-040
-0.031225743 0.033933543 -0.034077119 1.0163898e-039
-0.028960438 0.033431754 -0.032794513 1.10894e-039
-0.026986327 0.033931367 -0.033323139 1.2011328e-039
-0.024866773 0.033930298 -0.032946166 1.2929627e-039
-0.022900738 0.034429915 -0.033476166 1.5681076e-039
-0.020783976 0.034428876 -0.033099666 1.3855128e-039
-0.018667214 0.034427851 -0.032723166 3.68824e-039
-0.016711924 0.034927517 -0.033255048 1.9365216e-039
-0.014433872 0.034425847 -0.031970162 4.6094718e-039
-0.01231719 0.034424871 -0.031593643 1.0145653e-039
-0.010369858 0.034924589 -0.032126911 4.0584616e-039
-0.008427836 0.035424326 -0.03266111 5.5539764e-040
-0.0064910688 0.035924077 -0.033196237 4.1503055e-039
-0.0042049298 0.0354225 -0.031909857 5.5504311e-040
-0.0024532909 0.036423005 -0.033357613 2.4911513e-039
-0.00016437657 0.035921428 -0.032070667 4.8885922e-039
0.0015742001 0.036921982 -0.033520717 1.3848024e-039
0.0036780743 0.036921158 -0.033146389 1.2933284e-039
