# .PCD v0.7 - Point Cloud Data file format
VERSION 0.7
FIELDS x y z rgb
SIZE 4 4 4 4
TYPE F F F F
COUNT 1 1 1 1
WIDTH 930
HEIGHT 1
VIEWPOINT 0 0 0 1 0 0 0
POINTS 930
DATA ascii
0.086080752 0.079872437 0.0096122716 1.7867158e-039
0.08790639 0.082064062 0.0083038956 1.7867158e-039
0.089674756 0.083524868 0.0077714114 2.0633027e-039
0.091310017 0.082792923 0.0095904218 1.9718273e-039
0.092989251 0.082791984 0.010625542 2.0633027e-039
0.094668739 0.082791127 0.011660917 2.9830982e-039
0.096348524 0.082790345 0.012696616 3.7181353e-039
0.09796425 0.081327736 0.015315253 3.3507933e-039
0.099589482 0.079865247 0.01793984 2.984173e-039
0.10122428 0.078402787 0.020570498 1.9718273e-039
0.10274211 0.073285729 0.027184846 2.0618622e-039
0.0030286522 0.012105065 0.03024235 9.4997358e-039
0.0067614187 0.021623768 0.022026472 4.8122145e-039
0.0094618155 0.026015334 0.018835431 3.1588308e-039
0.011997778 0.029674497 0.016351797 3.0695205e-039
0.014376306 0.032601263 0.014579897 2.057172e-039
0.01660425 0.034795616 0.013523926 1.4139676e-039
0.018948022 0.037722472 0.011730716 1.5990805e-039
0.021145763 0.039916866 0.010656293 1.2306567e-039
0.023079269 0.040646352 0.011036409 8.6259449e-040
0.025130957 0.042108394 0.010680699 1.6916293e-039
0.027052719 0.042837951 0.011053684 2.3362756e-039
0.029088043 0.044300023 0.010688029 1.6894615e-039
0.030882115 0.04429717 0.011791085 3.3453759e-039
0.033017125 0.046491865 0.010678283 1.2076123e-038
0.035249643 0.049419113 0.0088169863 1.5669586e-038
0.037245523 0.050881375 0.00842728 7.8336984e-039
0.039232157 0.052343734 0.0080318926 1.5767958e-038
0.041209504 0.053806085 0.0076308935 1.7427125e-038
0.043075398 0.054536019 0.0079698544 1.6413693e-038
0.044936672 0.055265959 0.0083060786 1.6967222e-038
0.046793278 0.055995945 0.0086395107 1.2356721e-038
0.048740577 0.057458509 0.00822026 1.5122233e-038
0.050678715 0.058921147 0.0077953772 1.6595562e-038
0.052335393 0.058186237 0.0096230526 1.6688838e-038
0.054350473 0.060381476 0.0084371762 8.5698594e-039
0.056351759 0.062576823 0.0072428365 8.5687649e-039
0.058339342 0.064772248 0.0060401452 1.7336001e-038
0.059986841 0.064037472 0.0078624943 1.6506242e-038
0.061718274 0.064035341 0.0089279953 1.7700472e-038
0.063603707 0.065498397 0.0084712179 1.0416289e-038
0.065554745 0.067694023 0.0072463881 1.2714655e-038
0.067347266 0.068424657 0.0075411187 1.5482322e-038
0.069135308 0.069155298 0.0078332378 8.6670814e-039
0.070918806 0.069886014 0.0081226528 1.8164323e-038
0.072894394 0.072814509 0.0061046751 1.8716421e-038
0.074662089 0.073545359 0.0063845478 1.8072849e-038
0.076425321 0.074276268 0.0066617467 1.097416e-038
0.078184098 0.075007297 0.0069362568 7.6655804e-039
0.07988213 0.075005785 0.0079820873 3.1635224e-039
0.081634305 0.075736895 0.0082527772 2.428837e-039
0.083330393 0.075735517 0.0092976158 2.3384462e-039
0.08512558 0.077199347 0.0087864287 1.8778254e-039
0.086864613 0.077930681 0.009049342 2.0629369e-039
0.088689029 0.080127284 0.0077477507 2.1547752e-039
0.090414785 0.080858774 0.008002704 1.9711099e-039
0.092055626 0.080125183 0.0098226331 1.9703868e-039
0.093739338 0.080124244 0.010860517 2.5228403e-039
0.095459029 0.080855966 0.011112075 2.7061526e-039
0.097074255 0.079390019 0.013725186 3.0742148e-039
0.098698996 0.077924103 0.01634432 2.5217613e-039
0.1003333 0.076458313 0.018969432 2.4306447e-039
0.10189769 0.07279481 0.023977449 1.9703868e-039
0.0043937233 0.012946545 0.026577717 8.3066016e-039
0.0075444188 0.019550316 0.021260809 4.0778934e-039
0.010378022 0.024685927 0.017360946 3.1591868e-039
0.01277277 0.027619291 0.015609178 2.6092598e-039
0.015282194 0.031286813 0.013121987 2.6103458e-039
0.017244829 0.032017902 0.013522551 1.5983589e-039
0.019459952 0.034217291 0.012466406 1.2302938e-039
0.021787433 0.037150841 0.010673397 1.3224922e-039
0.023848351 0.038616151 0.010328525 1.5072436e-039
0.025778227 0.039347377 0.010709074 2.2444485e-039
0.02770339 0.040078677 0.011086707 1.4139676e-039
0.02985809 0.042278234 0.0099936379 1.4143221e-039
0.031769231 0.043009561 0.010362783 3.1602742e-039
0.033788204 0.044475112 0.0099922633 9.773443e-039
0.03590814 0.046674855 0.0088779032 1.7325866e-038
0.038014233 0.048874609 0.0077551249 1.7049647e-038
0.040000774 0.050340299 0.0073647993 1.0228261e-038
0.041874714 0.051071841 0.0077113044 9.5810952e-039
0.043541826 0.050335113 0.0095426366 9.0318885e-039
0.045509815 0.051800888 0.0091411071 6.5447785e-039
0.047468588 0.053266771 0.0087339384 1.3185759e-038
0.049418125 0.054732662 0.00832118 1.6689559e-038
0.051174678 0.054730255 0.0094017712 1.6413692e-038
0.053110398 0.056196246 0.0089806477 1.7426759e-038
0.055298924 0.059864875 0.0062970705 4.0576713e-039
0.057379447 0.062799379 0.0043530958 1.5490652e-038
0.059193484 0.063531414 0.004663269 1.6321851e-038
0.060761582 0.062060852 0.0072403066 1.6505888e-038
0.062495183 0.062058758 0.0083072055 1.3271482e-038
0.064456455 0.06425932 0.0070961663 7.3705847e-039
0.066403978 0.066459909 0.0058767982 1.097486e-038
0.068195269 0.067192219 0.0061733485 1.1343639e-038
0.069913097 0.067190357 0.0072308579 8.7585596e-039
0.071764313 0.068656936 0.0067584803 6.0838102e-039
0.073477745 0.068655185 0.0078134444 1.0694648e-038
0.07531549 0.070121899 0.0073329592 1.1244934e-038
0.077084348 0.070854522 0.0076161469 1.1617346e-038
0.078906268 0.07232137 0.0071261018 9.5915797e-039
0.080553539 0.071585655 0.0089467447 8.4902838e-039
0.082311437 0.072318435 0.0092235189 8.0307672e-039
0.084064908 0.073051274 0.0094976621 6.4688505e-039
0.085910648 0.075252667 0.0082165748 5.554457e-039
0.087696776 0.07671988 0.0077049825 3.1663936e-039
0.089430243 0.077452995 0.0079670772 1.8778254e-039
0.091117881 0.077451907 0.0090071494 2.4320852e-039
0.09276665 0.076716624 0.010829503 1.6945202e-039
0.09449397 0.077449948 0.011088123 2.7994272e-039
0.096182428 0.077449091 0.012129041 2.0618622e-039
0.097838983 0.076714039 0.013956545 2.6150331e-039
0.099410564 0.073776409 0.018149985 2.7987041e-039
0.10102854 0.071573049 0.021566119 3.4429917e-039
0.0017156126 0.002764699 0.032494165 7.2877413e-039
0.0057519693 0.013797767 0.022923931 4.9051192e-039
0.0086075924 0.01894496 0.019055318 3.8953071e-039
0.011157557 0.022620685 0.016605744 3.1606301e-039
0.013818705 0.027032208 0.013421093 2.4252287e-039
0.016188031 0.029972285 0.011663936 2.0578923e-039
0.018149467 0.030705076 0.012066374 1.691272e-039
0.020233637 0.032173708 0.01174082 1.1384625e-039
0.02243359 0.034378096 0.0106831 1.5075996e-039
0.024619663 0.036582574 0.0096168257 1.8760262e-039
0.026430046 0.036579732 0.010729968 1.7838249e-039
0.028476853 0.038048465 0.010381629 1.2302938e-039
0.030514386 0.03951728 0.010027567 1.8738569e-039
0.032428883 0.040250313 0.010401397 3.3424934e-039
0.034561519 0.042454999 0.0093024625 9.8631233e-039
0.03668027 0.044659689 0.0081950678 1.2346245e-038
0.038785152 0.046864476 0.0070791622 1.5572687e-038
0.040562581 0.046861872 0.0081723314 1.6405682e-038
0.042339947 0.046859298 0.0092655094 1.621951e-038
0.044217132 0.047592569 0.0096166749 1.3913546e-038
0.046285048 0.049797546 0.0084782289 1.1979989e-038
0.04833911 0.052002575 0.0073313145 1.0513526e-038
0.050193235 0.052735988 0.0076684742 1.7519319e-038
0.051951967 0.05273363 0.0087504722 1.5952714e-038
0.053887639 0.054202948 0.0083344253 1.3830408e-038
0.056072697 0.057879839 0.005661387 7.193043e-039
0.05806699 0.060085159 0.0044780225 1.6598436e-038
0.059802793 0.060082998 0.005546174 1.6321851e-038
0.061538585 0.06008089 0.0066144047 1.6689559e-038
0.063351408 0.06081466 0.0069265957 9.312832e-039
0.065234408 0.062284369 0.0064785304 1.8255088e-038
0.067035906 0.063018247 0.0067839087 1.7609354e-038
0.068832822 0.063752182 0.0070865485 1.7701903e-038
0.070557423 0.063750334 0.0081482725 1.8623506e-038
0.072282098 0.063748538 0.0092101144 1.7423164e-038
0.074070148 0.064482659 0.0095075546 1.2166541e-038
0.075975664 0.066688575 0.0082703186 9.4924967e-039
0.077926174 0.069630422 0.0062573506 1.170882e-038
0.079689369 0.070364729 0.0065397341 1.7888102e-038
0.081394032 0.070363246 0.0075897155 1.7059426e-038
0.083098896 0.070361823 0.0086399009 1.696795e-038
0.08490289 0.071832195 0.0081441896 1.6691009e-038
0.086650737 0.072566807 0.0084174676 1.4294288e-038
0.088439114 0.074037328 0.0079123443 6.9254973e-039
0.090175927 0.074772045 0.0081790788 4.5435589e-039
0.091827758 0.074035093 0.010000639 2.2462534e-039
0.093560487 0.074769959 0.010265082 2.0633027e-039
0.095217422 0.074033156 0.012090024 2.2476953e-039
0.096912682 0.074032292 0.013135134 2.4313649e-039
0.098546021 0.072559759 0.015749309 2.6150303e-039
0.10018884 0.071087256 0.0183695 2.8919759e-039
0.10178815 0.06814307 0.022570102 3.4433463e-039
0.0032334006 0.0043383455 0.028114535 8.3998833e-039
0.0066830097 0.012446619 0.021425242 4.0796955e-039
0.0092549725 0.016130593 0.019001896 3.3439325e-039
0.011939322 0.02055205 0.015846701 2.5170641e-039
0.0145959 0.024973527 0.012674504 2.0589685e-039
0.016831977 0.027182851 0.01164654 2.1515298e-039
0.018796796 0.027917359 0.012053695 1.323574e-039
0.020883182 0.029389299 0.011734705 1.0469872e-039
0.023208339 0.032336149 0.0099606719 1.6916349e-039
0.025393207 0.034545626 0.0089013409 1.415048e-039
0.027325258 0.035280265 0.0092884703 2.3366414e-039
0.029369738 0.036752354 0.0089438399 1.3235726e-039
0.031290043 0.037487101 0.0093237758 2.5184921e-039
0.033205613 0.038221832 0.0097008683 9.0434324e-039
0.035226796 0.039694037 0.009342039 1.3448243e-038
0.037238665 0.041166324 0.0089774691 1.2430137e-038
0.039346915 0.043376055 0.0078713363 1.3627953e-038
0.04113115 0.043373495 0.0089687714 1.4093237e-038
0.042915311 0.043370977 0.010066228 8.5640356e-039
0.044995818 0.045580883 0.0089431237 8.1048693e-039
0.047062494 0.047790844 0.0078115636 8.4808923e-039
0.049209598 0.050738323 0.0059285983 7.7473014e-039
0.050970562 0.050735969 0.0070119794 8.3854681e-039
0.052731521 0.050733659 0.0080954321 1.1149168e-038
0.054667111 0.052206315 0.0076844539 1.2998481e-038
0.056848705 0.055891488 0.0050219856 1.8071408e-038
0.058841836 0.058101777 0.0038455338 1.6320775e-038
0.060579821 0.058099654 0.0049150959 1.6597726e-038
0.062395964 0.058835063 0.0052318648 1.1986863e-038
0.064283445 0.060307998 0.0047916221 1.7427125e-038
0.066088237 0.061043549 0.0051014861 1.6873231e-038
0.067817152 0.061041635 0.0061657643 1.7517879e-038
0.06968417 0.062514737 0.0057131462 1.6964705e-038
0.071475394 0.063250408 0.006014945 1.594911e-038
0.073197678 0.063248649 0.0070753731 1.8160729e-038
0.074857943 0.062509455 0.0088986913 1.7607556e-038
0.076762229 0.06472034 0.0076683066 6.6369825e-039
0.078652889 0.066931248 0.0064296667 1.8624578e-038
0.08047469 0.068404771 0.0059496593 1.6966866e-038
0.082181543 0.068403311 0.0070010251 1.7243097e-038
0.083888628 0.068401903 0.0080526136 1.7150907e-038
0.0856442 0.06913808 0.0083331587 1.733565e-038
0.087395385 0.069874309 0.0086110998 1.7888469e-038
0.089142226 0.070610613 0.0088864509 1.5582871e-038
0.090926163 0.072084539 0.0083837062 7.9346059e-039
0.092583597 0.071345955 0.010206222 5.647031e-039
0.094319656 0.072082475 0.010475254 2.154778e-039
0.095982224 0.071344025 0.012301143 1.7874361e-039
0.097649693 0.070605606 0.014130213 2.4306447e-039
0.099322051 0.069867298 0.01596237 2.5228375e-039
0.10088854 0.066178948 0.020933563 2.5231948e-039
0.10242758 0.061015625 0.027490018 2.6153849e-039
0.0046007908 0.0051860074 0.024460921 6.6535907e-039
0.0077529959 0.011834421 0.019213451 3.5286881e-039
0.010316948 0.015526748 0.016797869 3.0687862e-039
0.012723301 0.018479995 0.015083897 2.5195809e-039
0.015375296 0.022911467 0.011924097 1.9678532e-039
0.017610174 0.025125757 0.010903121 1.4154025e-039
0.019576097 0.025862016 0.011313533 1.2321015e-039
0.021537254 0.026598267 0.011721108 1.5079653e-039
0.023739468 0.028812658 0.010680122 1.3228524e-039
0.025927724 0.031027127 0.0096305367 1.9682246e-039
0.027983796 0.03250258 0.0092981085 1.9678617e-039
0.030030502 0.033978023 0.0089599937 8.6367069e-040
0.032067928 0.035453506 0.0086162193 2.3340966e-039
0.03409601 0.036929067 0.0082666809 1.0147964e-038
0.036005694 0.037665546 0.0086428393 1.4463104e-038
0.038124356 0.039880272 0.0075506782 1.3629386e-038
0.040020034 0.040616821 0.0079182899 1.3720147e-038
0.041808747 0.040614322 0.0090185814 1.4183991e-038
0.043597396 0.040611848 0.010118878 9.6703719e-039
0.045679029 0.042826746 0.0090041226 9.2101252e-039
0.047746804 0.045041647 0.007880942 7.8319132e-039
0.049893871 0.047995757 0.0060081207 1.0233337e-038
0.051750116 0.048732556 0.0063517787 1.0966565e-038
0.053601813 0.049469445 0.0066926451 1.1794865e-038
0.055362601 0.049467221 0.0077761319 9.8576541e-039
0.057375174 0.051682387 0.0066192737 1.3360038e-038
0.05929238 0.053158533 0.0062021893 1.7886658e-038
0.061200373 0.054634694 0.0057795551 1.7149818e-038
0.06309925 0.0561109 0.0053513627 9.9574826e-039
0.064988993 0.05758721 0.0049175853 1.7427844e-038
0.066797063 0.0583244 0.0052321022 1.7242012e-038
0.068460375 0.05758338 0.0070545129 1.7149816e-038
0.070264012 0.058320675 0.0073664561 8.2936382e-039
0.072259903 0.061275486 0.0054013915 1.6503369e-038
0.073921114 0.060534615 0.0072227279 1.8070332e-038
0.075708963 0.061272074 0.0075251777 1.8531308e-038
0.077433698 0.061270457 0.0085873315 9.7719913e-039
0.079384148 0.06422551 0.0065945941 1.8257961e-038
0.081208177 0.065702297 0.0061211083 1.7705513e-038
0.082971342 0.066440001 0.00640869 9.131347e-039
0.08468058 0.06643863 0.0074616564 6.548782e-039
0.086437263 0.067176506 0.0077453922 6.8249919e-039
0.088189498 0.067914404 0.0080265217 1.7612237e-038
0.089852095 0.067174062 0.009849526 1.7612237e-038
0.091600209 0.067912087 0.010128309 1.7702999e-038
0.093343966 0.068650179 0.010404517 9.2228112e-039
0.095083393 0.069388345 0.010678163 3.8099652e-039
0.096751571 0.068648256 0.012505008 2.5228375e-039
0.098424666 0.067908242 0.01433499 2.7987027e-039
0.10007378 0.066429086 0.01694886 3.1664062e-039
0.10162615 0.061993349 0.022697238 3.5326678e-039
0.0059613483 0.0060435086 0.020818088 5.55012e-039
0.0086828386 0.010484741 0.017716277 2.7018085e-039
0.011241026 0.014185385 0.015309892 2.5199354e-039
0.013642799 0.017145295 0.013603317 2.5210214e-039
0.016025983 0.020105295 0.011885288 2.1522389e-039
0.018133326 0.021583933 0.011589401 1.5075982e-039
0.020231288 0.023062564 0.011287822 1.6005155e-039
0.022319896 0.024541266 0.010980472 1.4161242e-039
0.024520921 0.026760668 0.0099464338 1.2321043e-039
0.026469037 0.027498685 0.010348668 1.7845522e-039
0.028529661 0.028977487 0.010024189 1.7831075e-039
0.030465996 0.02971556 0.010419243 1.5075996e-039
0.03262284 0.031935148 0.0093581099 4.447755e-039
0.034655474 0.033414017 0.0090165772 1.2449241e-038
0.036786828 0.035633694 0.0079398537 1.6215896e-038
0.038692862 0.036371913 0.00831642 1.6123697e-038
0.040801074 0.038591672 0.0072255279 1.667363e-038
0.04279425 0.040070709 0.0068598925 1.6120816e-038
0.044679381 0.040809032 0.0072237137 1.565984e-038
0.046559826 0.041547451 0.0075846841 1.2341517e-038
0.048341379 0.041545108 0.0086807953 6.5415219e-039
0.050490685 0.044505801 0.0068195784 1.2999193e-038
0.052531954 0.046725843 0.0056878068 6.7259187e-039
0.054384671 0.047464386 0.0060319584 8.2928745e-039
0.056062605 0.046721447 0.0078604473 1.1885961e-038
0.057993509 0.048200879 0.0074568577 1.2899394e-038
0.060156681 0.051902648 0.0048084944 9.3073964e-039
0.061984129 0.052641373 0.0051373304 1.0601395e-038
0.063731082 0.052639376 0.0062126121 1.3274362e-038
0.065625362 0.05411898 0.0057867942 1.1154937e-038
0.067367814 0.054117072 0.0068594399 1.7334559e-038
0.069248363 0.055596817 0.006425255 1.6687764e-038
0.071053125 0.056335788 0.006740463 9.4053822e-039
0.072982237 0.058556426 0.0055403686 1.816397e-038
0.074773364 0.059295509 0.0058473414 1.7978137e-038
0.076500148 0.05929387 0.0069107143 1.8347639e-038
0.078284614 0.060033072 0.0072137523 8.9436725e-039
0.080064602 0.060772318 0.0075140987 7.4685383e-039
0.08184018 0.061511632 0.0078118141 7.3828419e-039
0.083509922 0.06076942 0.0096363612 7.94181e-039
0.085378014 0.062990487 0.0083992677 9.4133401e-039
0.087186404 0.064470775 0.0079214936 5.165472e-039
0.088985845 0.065951183 0.0074382508 1.7888825e-038
0.090610251 0.064468354 0.010031234 1.7611881e-038
0.092322506 0.064467244 0.01108646 1.8808985e-038
0.094034992 0.064466193 0.012141922 8.3916114e-039
0.095851615 0.066687666 0.010873677 4.7293963e-039
0.097525425 0.065945946 0.012701488 2.7979825e-039
0.099174112 0.064463437 0.015309948 3.167844e-039
0.10077681 0.061499383 0.019482134 3.8088876e-039
0.10227101 0.0548313 0.027567517 4.9116366e-039
0.0070370208 0.005426107 0.018601824 4.9062038e-039
0.0097493362 0.0098773493 0.015509598 1.5079457e-039
0.012030644 0.012101556 0.014532504 1.1416841e-039
0.014430112 0.015068174 0.012834685 1.6923411e-039
0.016811008 0.018034834 0.011125456 1.8767352e-039
0.019045819 0.020259185 0.010119769 2.2440828e-039
0.02114141 0.021741178 0.0098218936 2.0600545e-039
0.023227686 0.023223251 0.0095182629 1.7838249e-039
0.025183953 0.023962952 0.0099281073 3.805275e-039
0.027253816 0.025445033 0.0096144825 7.4812004e-039
0.029198296 0.026184794 0.010017147 7.4801102e-039
0.031251784 0.027666986 0.0096934717 5.8242098e-039
0.033295989 0.029149173 0.0093641523 6.2837194e-039
0.035330839 0.03063143 0.009029082 1.3458704e-038
0.037463326 0.032856066 0.0079607731 1.538647e-038
0.039477311 0.034338411 0.0076129413 1.5567973e-038
0.04158432 0.036563128 0.0065290411 1.5753453e-038
0.043677457 0.038787939 0.0054366058 1.6213358e-038
0.045756768 0.041012798 0.0043357094 1.5659463e-038
0.047535986 0.04101048 0.0054304246 1.6212279e-038
0.049128916 0.039523367 0.0079973936 1.428089e-038
0.05100343 0.04026356 0.0083574187 9.5876098e-039
0.052961845 0.041746143 0.0079757646 5.9912404e-039
0.05491104 0.043228772 0.0075884871 1.4010083e-038
0.056851048 0.044711489 0.0071955696 1.3916825e-038
0.058781855 0.046194214 0.0067970953 7.5545864e-039
0.060862221 0.049161851 0.004903865 9.1219247e-039
0.062693059 0.049902271 0.0052373884 9.5825623e-039
0.064519316 0.050642777 0.0055681081 9.6794383e-039
0.06634099 0.051383287 0.0058961152 8.480151e-039
0.068017744 0.050639004 0.0077218162 1.2261981e-038
0.06990286 0.05212203 0.0072955899 1.7980282e-038
0.071713202 0.052862678 0.0076168184 1.7981372e-038
0.073582411 0.054345865 0.007180904 1.7151257e-038
0.075381495 0.055086616 0.0074953549 1.7795186e-038
0.077176079 0.055827443 0.0078071118 1.2815536e-038
0.079022624 0.057310779 0.0073574567 1.7796261e-038
0.080805965 0.058051709 0.00766245 1.3185406e-038
0.082584932 0.058792699 0.0079648355 8.6725255e-039
0.084408954 0.060276177 0.0075015933 7.2017226e-039
0.086176753 0.061017331 0.0077972109 6.0874283e-039
0.087985054 0.062500931 0.0073244702 1.6228226e-038
0.08969909 0.062499721 0.0083806235 1.72431e-038
0.09133254 0.061013665 0.01097413 1.7518607e-038
0.093051583 0.061012562 0.012033563 1.8348374e-038
0.094806664 0.06175397 0.012321841 8.57636e-039
0.096590899 0.063237898 0.011834743 4.2687783e-039
0.098272614 0.062494542 0.013664914 3.2589522e-039
0.099901415 0.060266297 0.017049545 3.1671195e-039
0.10146455 0.055810753 0.022774171 3.5355391e-039
0.0081103835 0.0048119612 0.016389018 3.3439311e-039
0.01067796 0.0085291518 0.014013949 1.4168333e-039
0.01295578 0.010758377 0.013042393 1.2328077e-039
0.015219651 0.012987672 0.012062228 1.6001483e-039
0.01759821 0.015960995 0.010361797 2.1526046e-039
0.019831864 0.018190321 0.0093631288 2.3352008e-039
0.021927401 0.01967572 0.0090703331 1.9678645e-039
0.023891842 0.020417113 0.0094878254 2.7054155e-039
0.025851477 0.021158524 0.009902373 5.9235913e-039
0.027923586 0.022644017 0.0095952516 1.3365778e-038
0.029871441 0.023385484 0.010002617 1.4102259e-038
0.031814545 0.024126973 0.010407081 1.3272518e-038
0.03386328 0.025612555 0.010085672 1.2538945e-038
0.035902683 0.02709813 0.0097586019 1.3270337e-038
0.038250022 0.030815847 0.0072483816 1.5571589e-038
0.040160496 0.031557474 0.007632928 1.6213711e-038
0.042167485 0.033043209 0.0072859763 1.667468e-038
0.044362888 0.036017045 0.0054732687 1.6398454e-038
0.046346739 0.037502822 0.0051122145 1.6028245e-038
0.048227008 0.038244594 0.0054783383 1.5198127e-038
0.05001067 0.038242374 0.0065759323 1.3266747e-038
0.051883977 0.038984265 0.0069378261 1.0326262e-038
0.053840015 0.040470202 0.0065598413 1.483913e-038
0.055786885 0.041956171 0.006176265 1.4005387e-038
0.057641711 0.04269819 0.0065269386 1.0686369e-038
0.059572484 0.044184256 0.0061335624 8.2907221e-039
0.061572276 0.046414476 0.0049918136 1.4746232e-038
0.063406467 0.04715658 0.0053299889 9.3052538e-039
0.065162428 0.047154669 0.0064109736 7.4663719e-039
0.066989787 0.047896866 0.0067450809 1.2900124e-038
0.068812564 0.048639104 0.0070764157 1.2714993e-038
0.070697583 0.050125506 0.0066552074 9.9563349e-039
0.072509028 0.050867848 0.0069797123 9.9585293e-039
0.074315965 0.051610235 0.0073015066 1.0970889e-038
0.076058507 0.051608603 0.0083746314 1.1707382e-038
0.077858761 0.052351099 0.0086924611 8.1070651e-039
0.079820454 0.055325922 0.006737005 1.7335283e-038
0.081604883 0.056068573 0.0070451936 1.7242734e-038
0.083384901 0.056811232 0.0073507777 1.7334573e-038
0.085112005 0.056809861 0.0084147854 1.7335295e-038
0.086931586 0.058296714 0.0079539921 1.7888469e-038
0.088698298 0.059039552 0.0082516354 1.7518963e-038
0.090377562 0.058294263 0.010077343 1.7518607e-038
0.092100851 0.058293123 0.011139328 1.8532045e-038
0.093898296 0.059780266 0.010665204 1.0512111e-038
0.095617473 0.059779245 0.011724839 6.7447144e-039
0.097336926 0.059778292 0.012784744 4.9123485e-039
0.098996505 0.058289152 0.01538976 3.3507933e-039
0.10063778 0.056056019 0.018774472 3.0749239e-039
0.10211483 0.048614129 0.027594756 3.2585977e-039
0.0091813738 0.0042009819 0.014179725 3.0691435e-039
0.011606491 0.0071808724 0.012518108 2.3348351e-039
0.0137487 0.0086694816 0.012259149 2.5199494e-039
0.016011395 0.010903803 0.011285968 2.3362756e-039
0.01826011 0.013138109 0.010304263 2.703619e-039
0.020494854 0.015372488 0.0093139196 4.174782e-039
0.02259266 0.016861212 0.0090277242 4.0818619e-039
0.024560472 0.017604362 0.0094498796 7.8478053e-039
0.026641864 0.019093145 0.0091536529 1.2906609e-038
0.028713899 0.02058199 0.0088516334 1.6959224e-038
0.030776652 0.022070833 0.0085439887 1.6684089e-038
0.032607034 0.022068378 0.0096700825 1.5945085e-038
0.034655713 0.023557279 0.0093538323 1.5851078e-038
0.03680196 0.025791924 0.0083092721 1.492804e-038
0.038934357 0.028026611 0.0072562238 1.0509199e-038
0.041052837 0.030261289 0.006194687 1.0599593e-038
0.042957429 0.031004708 0.0065782359 1.2900462e-038
0.044955045 0.032493789 0.0062307501 1.3450746e-038
0.046943415 0.03398291 0.0058776187 1.3909209e-038
0.048922509 0.035472121 0.0055187829 1.4646781e-038
0.050892413 0.036961321 0.005154375 1.1515435e-038
0.052764483 0.037704919 0.0055181193 1.1428658e-038
0.054718167 0.0391942 0.0051438292 1.5482665e-038
0.056578703 0.039937835 0.0055006202 1.7050343e-038
0.058516283 0.041427244 0.0051164636 1.686596e-038
0.060365319 0.04217096 0.0054662824 1.686596e-038
0.062132623 0.042169012 0.0065542017 1.1057638e-038
0.063899949 0.042167101 0.0076421956 9.3023363e-039
0.065884814 0.044402394 0.0064990232 1.0224291e-038
0.067785785 0.045891989 0.0060926629 1.040868e-038
0.069541715 0.045890212 0.0071738269 1.4554924e-038
0.071363322 0.046634182 0.0075071082 1.6213002e-038
0.073243745 0.048123967 0.0070882486 1.7417675e-038
0.075054064 0.048868041 0.0074147237 1.7235088e-038
0.076801069 0.04886644 0.0084906491 1.6868835e-038
0.078604698 0.049610619 0.0088131381 1.5026004e-038
0.080457993 0.051100563 0.0083778976 7.8337096e-039
0.08230228 0.052590612 0.0079371408 1.7240922e-038
0.084087901 0.053334948 0.0082487594 1.8073213e-038
0.085869104 0.054079328 0.0085577369 1.7612237e-038
0.087600902 0.054078046 0.0096247634 1.7152339e-038
0.089375585 0.05482259 0.0099298367 1.7060145e-038
0.091065027 0.054075632 0.011759371 1.7705514e-038
0.092873663 0.055566024 0.011297142 1.1804299e-038
0.094673336 0.057056431 0.010829506 7.3882999e-039
0.096397027 0.057055432 0.011891963 3.3489954e-039
0.098089725 0.056308743 0.013723801 2.4306447e-039
0.099758372 0.054816376 0.016329344 2.7990587e-039
0.10138318 0.051832534 0.020484816 3.0738407e-039
0.010114496 0.0028459467 0.012676356 3.5297671e-039
0.012401688 0.0050851842 0.011725954 3.1631566e-039
0.014543845 0.006577217 0.01147211 2.5192264e-039
0.016934086 0.0095638325 0.0097992746 3.8059995e-039
0.019052902 0.011055873 0.0095311534 8.222001e-039
0.02116234 0.012547984 0.0092572263 1.2631865e-038
0.023262402 0.014040074 0.0089776004 1.2539666e-038
0.025114056 0.014037599 0.010116785 1.124712e-038
0.027317228 0.016277082 0.0091147795 1.4378111e-038
0.02927657 0.01702195 0.0095344689 1.6868823e-038
0.031343833 0.018514156 0.0092347646 1.714398e-038
0.033181053 0.018511768 0.010365169 1.7419139e-038
0.035342321 0.020751372 0.0093374923 1.6590455e-038
0.037383899 0.022243664 0.0090220748 1.4745083e-038
0.039623182 0.025230672 0.0072566606 1.3366864e-038
0.041742753 0.027470399 0.0062034298 6.3770038e-039
0.043749608 0.028962806 0.0058667543 7.5694317e-039
0.045747157 0.030455284 0.005524327 9.0344627e-039
0.04764118 0.031200435 0.0059041162 1.0959737e-038
0.049622513 0.032692943 0.005551843 1.1233788e-038
0.051504917 0.033438209 0.005924528 9.5854518e-039
0.053557504 0.035678137 0.0048303669 9.4972247e-039
0.05559627 0.037918154 0.0037276987 1.4837296e-038
0.057538427 0.039410826 0.0033515 1.7142538e-038
0.059390813 0.040156249 0.0037058927 1.7326931e-038
0.061238624 0.040901668 0.0040575652 1.7695357e-038
0.062929876 0.040152427 0.0058846036 1.751203e-038
0.064773083 0.040897917 0.0062335385 1.6956697e-038
0.066540323 0.040896092 0.0073216241 1.4834061e-038
0.068445779 0.042389024 0.0069231573 1.151503e-038
0.070342094 0.043882046 0.0065190727 1.5476159e-038
0.072293818 0.046122435 0.0053633614 1.5659103e-038
0.074169613 0.047615554 0.0049467767 1.6216602e-038
0.075976372 0.04836132 0.0052736392 1.8154875e-038
0.077721044 0.04835977 0.0063481973 1.7789335e-038
0.079410434 0.04761089 0.0081746411 1.7514195e-038
0.081316747 0.049851533 0.0069912905 1.69607e-038
0.083107904 0.050597537 0.0073087746 9.9538448e-039
0.084943064 0.052090924 0.0068676239 8.4827042e-039
0.086630709 0.051342238 0.0086932871 8.7618162e-039
0.088367037 0.051340979 0.0097631449 9.6855704e-039
0.09010347 0.051339772 0.01083315 8.579234e-039
0.091918692 0.052833371 0.010380014 8.3962875e-039
0.093687974 0.053579699 0.010684492 6.0132828e-039
0.09545292 0.054326039 0.010986435 4.0840325e-039
0.097181059 0.054325048 0.012051655 2.982015e-039
0.098849267 0.052829307 0.014651846 2.7979825e-039
0.10047137 0.049838845 0.018795498 3.3507905e-039
0.10203557 0.044606272 0.025261212 3.625218e-039
0.010913066 0.00074190274 0.011873352 2.1489893e-039
0.01319909 0.0029861666 0.010929946 2.9776794e-039
0.015341227 0.004481568 0.010681263 4.2662546e-039
0.017601557 0.0067258831 0.0097220764 1.1899301e-038
0.019722627 0.0082213385 0.0094604613 1.5303302e-038
0.021957289 0.010465709 0.0084855137 1.6406757e-038
0.023936629 0.011212272 0.0089200251 1.6406757e-038
0.025911177 0.011958814 0.0093516437 1.6772658e-038
0.027997071 0.013454323 0.0090685152 1.5295721e-038
0.030073607 0.014949906 0.0087796133 1.6404244e-038
0.03214081 0.016445465 0.008485036 1.7695003e-038
0.034089468 0.01719211 0.0089008333 1.7510966e-038
0.036140334 0.018687777 0.0085962117 1.6959224e-038
0.038181864 0.020183429 0.0082859192 1.4651817e-038
0.0404188 0.023177091 0.0065292711 1.4471054e-038
0.042437173 0.024672862 0.0062047509 4.5395933e-039
0.044446256 0.026168618 0.0058745937 2.793651e-039
0.046350587 0.026915442 0.0062633059 5.1824375e-039
0.048250251 0.0276623 0.0066492031 1.0328779e-038
0.050236117 0.029158209 0.0063048303 1.3913166e-038
0.05212415 0.029905122 0.0066836318 1.4649997e-038
0.054180138 0.032150086 0.0055991914 1.4740431e-038
0.056138318 0.033646073 0.0052379556 1.3359286e-038
0.058168985 0.035891119 0.0041380143 1.5571968e-038
0.060027052 0.036638197 0.0044985628 1.7971573e-038
0.062034734 0.038883332 0.003384572 1.8064123e-038
0.063804194 0.038881499 0.0044739926 1.6867011e-038
0.065646179 0.039628688 0.0048247892 1.6773736e-038
0.067413315 0.039626919 0.0059128841 1.5669583e-038
0.06931641 0.041123193 0.0055180974 8.5817424e-039
0.0711447 0.041870549 0.0058605825 1.1981417e-038
0.073031865 0.043366916 0.0054560965 1.5476892e-038
0.074909873 0.044863328 0.0050460338 1.6121883e-038
0.076720037 0.045610823 0.0053775432 1.7876834e-038
0.078525662 0.046358321 0.0057063662 1.6679731e-038
0.080272622 0.046356853 0.0067824707 1.6403876e-038
0.082123548 0.047853459 0.0063559823 1.7240877e-038
0.083866112 0.04785208 0.0074295122 1.7519646e-038
0.085656203 0.048599776 0.0077490443 1.3101496e-038
0.087396801 0.048598494 0.0088215126 3.7174038e-039
0.089094877 0.047848236 0.010651205 3.165316e-039
0.09091901 0.049345147 0.010208532 2.7979839e-039
0.092734188 0.050842065 0.009760458 3.2586061e-039
0.094504513 0.051590022 0.010068205 2.89162e-039
0.096236952 0.051589001 0.011136018 2.6157506e-039
0.097907096 0.050089974 0.013732267 2.1554955e-039
0.099586651 0.048590958 0.016334441 2.6153849e-039
0.10116898 0.044095855 0.022010228 3.1649615e-039
0.10265727 0.035855599 0.031545024 3.9003643e-039
0.01399869 0.00088377576 0.010130124 2.974071e-039
0.016140768 0.0023825085 0.0098866178 4.4477536e-039
0.018273501 0.0038813138 0.0096373474 1.2908404e-038
0.020520955 0.0061307168 0.0086779064 1.6683711e-038
0.022754466 0.0083801104 0.0077099525 1.6775894e-038
0.02473487 0.0091283517 0.0081478041 1.7143599e-038
0.026710533 0.0098766619 0.0085827215 1.7511656e-038
0.028681388 0.01062495 0.0090147555 1.5848529e-038
0.030760173 0.01212385 0.008732439 1.529394e-038
0.032829631 0.013622825 0.0084443744 1.5389032e-038
0.034781665 0.014371184 0.0088648982 1.6036192e-038
0.036940549 0.016620819 0.0078511359 1.5391176e-038
0.03898203 0.018119838 0.0075459769 1.5113157e-038
0.041115437 0.020369545 0.0065166089 1.2998093e-038
0.04303709 0.021118015 0.0069185463 5.2746332e-039
0.045050722 0.022617128 0.0065963482 3.9853461e-039
0.047149371 0.024866942 0.0055456813 1.0051092e-038
0.04905013 0.025615513 0.0059348773 1.4561429e-038
0.050946202 0.026364107 0.0063212109 1.6497146e-038
0.05275017 0.026362106 0.0074316869 1.7603131e-038
0.054809541 0.02861207 0.0063570035 1.631024e-038
0.05685509 0.030862074 0.0052738539 1.6031868e-038
0.058886889 0.033112075 0.0041823233 1.4186883e-038
0.0608266 0.034611534 0.0038149043 1.6679022e-038
0.06275712 0.036110986 0.0034419205 1.65879e-038
0.064531028 0.03610919 0.0045341607 1.6312035e-038
0.066376396 0.036858086 0.0048896568 1.677411e-038
0.068148032 0.036856364 0.0059806034 1.5669939e-038
0.070053399 0.038356025 0.0055922964 6.2880508e-039
0.071949571 0.039855681 0.0051984251 5.7356085e-039
0.073836654 0.041355427 0.0047989683 1.2899418e-038
0.075714625 0.042855177 0.0043940078 1.5382886e-038
0.077468194 0.042853661 0.005474112 1.5753819e-038
0.07927721 0.04360285 0.0058076154 1.6954873e-038
0.081028655 0.04360142 0.0068865502 1.6774112e-038
0.082932554 0.045852061 0.0057169339 1.5303694e-038
0.08472582 0.046601381 0.0060409424 6.1965895e-039
0.086560883 0.048101466 0.0056098839 3.9010706e-039
0.088255212 0.047349516 0.0074347723 2.7976223e-039
0.089995913 0.047348317 0.008507425 2.6143115e-039
0.091736794 0.047347166 0.0095802527 2.7994244e-039
0.093514904 0.04809678 0.0098952334 2.7075861e-039
0.09525384 0.048095729 0.010967026 3.0745707e-039
0.096993089 0.048094731 0.012039088 2.7979839e-039
0.098672256 0.046592388 0.01463592 2.9823737e-039
0.10027733 0.042838067 0.0195297 3.3522282e-039
0.10182905 0.036831718 0.026733249 3.2582319e-039
0.10323174 0.024819924 0.04009179 3.1660391e-039
0.016942563 0.00028012414 0.009088153 2.7875021e-039
0.019200545 0.0025345283 0.0081428904 1.1252511e-038
0.021567537 0.0055411952 0.0064864783 1.5671019e-038
0.023674553 0.0070433831 0.0062266276 1.7420556e-038
0.02565374 0.0077933529 0.0066663893 1.7052477e-038
0.027628204 0.0085433898 0.0071032154 1.7327971e-038
0.029597867 0.0092934007 0.0075371545 1.7141781e-038
0.031562749 0.010043428 0.0079681678 1.5850725e-038
0.033632159 0.011545734 0.0076852874 1.3177812e-038
0.035692226 0.013048108 0.0073966417 1.5476941e-038
0.03774298 0.014550465 0.0071023293 1.5383994e-038
0.039886769 0.016805146 0.0060869977 1.3079825e-038
0.042016696 0.01905987 0.0050631724 1.1420319e-038
0.04393715 0.019810058 0.0054670116 1.2246128e-038
0.045852937 0.020560276 0.0058680102 1.2429781e-038
0.047857217 0.022062834 0.005545211 1.4553495e-038
0.049852252 0.023565378 0.005216789 1.7506988e-038
0.051749386 0.024315689 0.0056064148 1.7419834e-038
0.053641874 0.025066026 0.0059932107 1.7696418e-038
0.055529717 0.025816437 0.0063771508 1.7695343e-038
0.057494629 0.027319117 0.0060303453 1.7048538e-038
0.059529833 0.02957416 0.0049485439 1.6492483e-038
0.061396893 0.030324642 0.0053198673 1.3264572e-038
0.063334219 0.031827435 0.00495621 1.372588e-038
0.065189816 0.032578025 0.0053205192 1.6215519e-038
0.067181371 0.034833189 0.0042120707 1.5393366e-038
0.06895525 0.034831528 0.005304493 1.1436193e-038
0.07086052 0.036334526 0.0049212417 6.4724421e-039
0.072693229 0.037085231 0.0052717072 5.4611852e-039
0.074582539 0.038588274 0.0048787985 1.0052555e-038
0.076403923 0.039339107 0.0052223578 1.3544781e-038
0.078220814 0.040089939 0.0055632452 1.6308443e-038
0.080033198 0.040840805 0.005901414 1.6314563e-038
0.081789128 0.040839415 0.0069831749 1.0612201e-038
0.083594866 0.041590374 0.0073173828 6.1040281e-039
0.08544343 0.04309373 0.0068996861 3.4419029e-039
0.08728303 0.0445971 0.0064765764 2.7054239e-039
0.089028031 0.044595886 0.0075518694 2.4306447e-039
0.090773247 0.044594716 0.0086273551 2.8916172e-039
0.092518605 0.044593599 0.0097030047 2.8908969e-039
0.094264179 0.044592526 0.010778857 3.1674866e-039
0.095976345 0.043839179 0.01261251 2.7065085e-039
0.097693354 0.043085888 0.014449228 3.0745707e-039
0.099386208 0.041580271 0.017049486 2.7054267e-039
0.10098159 0.03706542 0.022703014 3.5344643e-039
0.1025072 0.029541273 0.03142694 3.9028839e-039
0.020127513 0.0011876775 0.0066482695 5.4510538e-039
0.022246141 0.0026932154 0.0064007435 1.3831442e-038
0.024355385 0.0041988222 0.0061474154 1.7788272e-038
0.026220705 0.0041966354 0.0072954716 1.7327636e-038
0.028430788 0.006456119 0.0063285436 1.7236131e-038
0.030514238 0.0079617919 0.0060593896 1.6958116e-038
0.032477938 0.0087135462 0.0064923223 1.5667416e-038
0.034328789 0.008711434 0.0076315659 9.8598583e-039
0.036391076 0.010217129 0.0073494934 1.0771364e-038
0.038444094 0.011722897 0.0070617022 1.2062795e-038
0.040588975 0.013982593 0.0060547418 1.3816664e-038
0.042621065 0.015488374 0.0057541612 1.4460236e-038
0.044643838 0.016994189 0.0054478878 1.3997097e-038
0.046562996 0.017746165 0.005853557 1.417968e-038
0.048569497 0.019252036 0.0055373171 1.5381812e-038
0.050656565 0.021511901 0.0044949274 1.7138208e-038
0.052554771 0.022263922 0.004887837 1.7053214e-038
0.054448325 0.023015972 0.0052779289 1.7512751e-038
0.056337249 0.023768052 0.0056652059 1.7142893e-038
0.058382727 0.026028063 0.0045973659 1.7142527e-038
0.060257804 0.026780207 0.0049761962 1.6124055e-038
0.062204264 0.028286364 0.004623218 1.5754563e-038
0.064067818 0.029038576 0.0049950317 1.5566206e-038
0.065998189 0.030544762 0.0046322867 1.5382167e-038
0.067919441 0.032051031 0.0042639282 1.5383253e-038
0.069764636 0.032803353 0.0046245889 1.5476892e-038
0.071669839 0.034309659 0.0042464924 1.464929e-038
0.073503643 0.035062101 0.0046001854 1.4925519e-038
0.075332955 0.035814542 0.0049512209 1.4832984e-038
0.077157684 0.036567021 0.0052994848 1.6218446e-038
0.078977935 0.037319545 0.0056450455 9.3247332e-039
0.080793671 0.03807215 0.0059878328 4.2666217e-039
0.082554094 0.038070802 0.0070724301 2.1529788e-039
0.084411703 0.039577398 0.0066653993 2.3384462e-039
0.086260229 0.04108404 0.0062528392 2.5235578e-039
0.088099785 0.042590778 0.0058347718 1.9711099e-039
0.089805342 0.041835647 0.0076615973 2.3384462e-039
0.091555037 0.041834515 0.0087399017 2.4306447e-039
0.093304917 0.041833431 0.0098183947 2.6150331e-039
0.095054984 0.041832387 0.010897066 2.6150331e-039
0.096772783 0.041077383 0.012731752 2.5228375e-039
0.098465256 0.039568502 0.015326659 3.1671209e-039
0.10011139 0.036551688 0.019444704 3.3511478e-039
0.10172495 0.03202698 0.02509433 3.3497073e-039
0.10318011 0.021470483 0.036852863 4.5450079e-039
0.023049958 0.00059415679 0.005608635 5.8223713e-039
0.024922276 0.00059203338 0.0067610987 1.1525501e-038
0.026794378 0.00058991741 0.0079134628 1.5024569e-038
0.028894028 0.0020989301 0.0076594264 1.5485154e-038
0.031095866 0.0043634614 0.0066951625 1.5299686e-038
0.033283759 0.0066280691 0.0057222866 1.309138e-038
0.035243794 0.0073815705 0.006155639 9.9603608e-039
0.037408464 0.0096462322 0.0051685022 1.5568028e-038
0.039354417 0.01039978 0.0055932421 1.6581799e-038
0.041495848 0.012664498 0.0045918534 1.5662342e-038
0.043427765 0.013418096 0.0050079981 1.4646767e-038
0.045355 0.014171722 0.0054212916 1.400032e-038
0.047277514 0.014925367 0.0058317054 1.5107745e-038
0.049286254 0.016434647 0.0055219685 1.538217e-038
0.051374417 0.018699476 0.0044879899 1.5753479e-038
0.053448685 0.020964384 0.0034454279 1.6221658e-038
0.0554251 0.022473723 0.0031159492 1.7696065e-038
0.05722874 0.022471946 0.004226563 1.6590436e-038
0.059191264 0.023981381 0.0038885425 1.7327636e-038
0.060990248 0.023979668 0.0049963826 1.5297177e-038
0.06286405 0.024733558 0.005377098 1.5112805e-038
0.064805865 0.02624305 0.0050264993 1.6213374e-038
0.066808805 0.028508212 0.0039402926 1.7503018e-038
0.068729959 0.03001783 0.0035770251 1.7135313e-038
0.070576228 0.030771855 0.0039409488 1.7319716e-038
0.072481394 0.032281507 0.0035679615 1.6492469e-038
0.074316278 0.03303561 0.003924991 1.6123682e-038
0.076205485 0.034545381 0.0035422235 1.6583967e-038
0.077972464 0.034543965 0.0046307584 1.7877239e-038
0.079793811 0.03529818 0.0049795993 8.3152687e-039
0.081558615 0.035296839 0.0060669091 3.5330224e-039
0.083323561 0.035295527 0.0071543539 2.3391693e-039
0.085136011 0.036049865 0.0074978909 1.8789114e-039
0.086989075 0.037559882 0.0070931972 1.7867158e-039
0.088790342 0.038314302 0.0074299453 2.2469765e-039
0.09054666 0.038313162 0.0085123265 2.4313649e-039
0.09230312 0.038312059 0.009594854 2.3391693e-039
0.094095707 0.039066609 0.009926457 1.9703868e-039
0.095850296 0.039065599 0.011007968 2.154778e-039
0.097573735 0.038309019 0.012843614 2.5235578e-039
0.099243931 0.036041226 0.016193097 1.51264e-039
0.10087462 0.032262247 0.021064844 2.5235494e-039
0.10245517 0.026216421 0.028225606 3.7177681e-039
0.029704452 0 0.0068717129 5.0833769e-039
0.031794652 0.0015124148 0.006617066 3.9777426e-039
0.033983663 0.003781992 0.0056526233 4.4423333e-039
0.035947099 0.0045372639 0.0060906745 4.6292525e-039
0.038112834 0.0068068961 0.0051119463 1.2632913e-038
0.040163454 0.0083194124 0.0048330296 1.4836922e-038
0.042204719 0.0098319044 0.0045484141 1.5664491e-038
0.044043332 0.0098300232 0.0056804605 1.7418003e-038
0.046070606 0.01134261 0.0053872373 1.7046715e-038
0.047996487 0.012097972 0.005802366 1.723111e-038
0.05009729 0.014367777 0.0047838222 1.6218752e-038
0.052184246 0.016637664 0.0037567383 1.5481555e-038
0.054172121 0.018150367 0.0034393757 1.3826046e-038
0.056233712 0.020420276 0.002396788 1.3915705e-038
0.058039546 0.020418568 0.0035088682 1.6399563e-038
0.060002029 0.021931373 0.003175979 1.6402081e-038
0.061879266 0.02268694 0.0035614001 1.3922232e-038
0.063751839 0.023442533 0.0039439695 8.1250956e-039
0.065619841 0.024198163 0.0043237815 1.6313851e-038
0.06755238 0.025711093 0.0039726095 1.6494984e-038
0.069408938 0.026466791 0.0043454519 1.6677938e-038
0.071390077 0.028737027 0.0032535861 1.6954522e-038
0.073232882 0.029492788 0.0036180504 1.7784284e-038
0.075131126 0.031005818 0.0032459749 1.7877186e-038
0.076962575 0.031761657 0.0036035385 1.7230388e-038
0.078789495 0.032517578 0.0039583207 1.7970484e-038
0.080665 0.034030724 0.0035723913 1.126011e-038
0.082378924 0.033272192 0.0053991666 3.8085078e-039
0.084146068 0.033270933 0.0064880438 1.4197353e-039
0.085959606 0.034026954 0.0068348348 1.2349826e-039
0.08781261 0.035540309 0.0064352211 1.6030448e-039
0.089614928 0.036296416 0.0067752171 1.6952376e-039
0.091373414 0.036295313 0.0078589972 1.9711099e-039
0.093132138 0.036294255 0.0089429887 1.7874361e-039
0.094891004 0.036293231 0.01002712 1.9718273e-039
0.096650086 0.036292251 0.011111457 1.8799876e-039
0.098348945 0.034776762 0.013700265 2.6161079e-039
0.10002932 0.0325041 0.01704846 2.4324397e-039
0.10164683 0.027959617 0.022670291 4.3616998e-039
0.10315223 0.018871617 0.032847568 5.0048972e-039
0.034581024 0.00017047953 0.0062777693 3.4321485e-039
0.036654808 0.0016862685 0.0060182833 3.2455978e-039
0.038924109 0.0047198096 0.0043428061 4.3494174e-039
0.040974658 0.0062356535 0.0040690671 1.4844501e-038
0.043113716 0.0085104061 0.0030816132 1.6589331e-038
0.044952281 0.0085086031 0.0042137457 1.7420526e-038
0.046883933 0.0092656696 0.00463505 1.6128353e-038
0.048810899 0.010022796 0.0050534396 1.640242e-038
0.050910506 0.012297616 0.0040418543 1.6680453e-038
0.052996278 0.014572511 0.0030217322 1.705032e-038
0.054984111 0.016088538 0.0027095578 1.2257295e-038
0.056962702 0.017604638 0.0023916778 1.1240262e-038
0.05885255 0.018361859 0.0027874145 1.5106666e-038
0.060814954 0.019877978 0.0024596849 1.5016998e-038
0.062693268 0.020635299 0.0028483374 9.6884641e-039
0.064639568 0.022151481 0.00251076 7.9414317e-039
0.066436023 0.022149948 0.0036173202 1.4930916e-038
0.068300486 0.022907317 0.003997609 1.7233271e-038
0.070160389 0.023664713 0.004375122 1.8337458e-038
0.072079189 0.025181066 0.0040207291 1.8521849e-038
0.073927663 0.02593853 0.0043912977 1.815414e-038
0.075889312 0.028213836 0.0032951836 1.7048504e-038
0.077780686 0.029730249 0.0029240667 1.6954523e-038
0.079608664 0.030487821 0.0032821493 1.7602422e-038
0.081432179 0.031245474 0.0036374833 1.236536e-038
0.08315172 0.030485295 0.0054653073 4.636465e-039
0.084875911 0.029725198 0.0072960197 2.2466051e-039
0.086695105 0.030482907 0.0076488899 1.7874361e-039
0.088595502 0.032758486 0.0065153837 1.5108492e-039
0.09040118 0.033516277 0.006860042 2.2484142e-039
0.092202447 0.034274153 0.0072019948 1.6030448e-039
0.093963362 0.034273129 0.0082873926 1.9711099e-039
0.095690779 0.033513207 0.010120462 1.9718273e-039
0.09739162 0.031994458 0.012705389 1.9721819e-039
0.099072777 0.029716812 0.016046528 3.0763658e-039
0.1007679 0.02743924 0.019396281 3.2596711e-039
0.10237911 0.022126004 0.025767358 3.5351761e-039
0.039433718 0.00034786109 0.0056797871 5.7309001e-039
0.041590072 0.0026276028 0.0047106682 4.2561274e-039
0.043635823 0.0041468358 0.0044391672 7.2928154e-039
0.04557788 0.0049055982 0.004869496 1.4564669e-038
0.047607347 0.0064249234 0.0045879688 1.5853594e-038
0.049717352 0.0087047787 0.003590412 1.4193405e-038
0.051813472 0.010984615 0.0025843726 8.8597768e-039
0.053725258 0.01174347 0.0029961541 8.0307532e-039
0.055632398 0.012502397 0.0034050685 1.1517229e-038
0.057615537 0.014021817 0.003095204 1.4458087e-038
0.059511036 0.014780751 0.0034970557 1.4828284e-038
0.061554067 0.017060783 0.0024584264 1.6860897e-038
0.063435748 0.017819772 0.002851835 1.6035819e-038
0.065455765 0.020099867 0.0017990969 1.4284119e-038
0.067254446 0.020098399 0.0029071264 1.5389015e-038
0.069119968 0.020857476 0.0032906921 1.6493555e-038
0.070980951 0.021616582 0.0036715004 1.6124786e-038
0.072837353 0.022375718 0.0040495256 1.5940764e-038
0.074749209 0.023895457 0.0036960412 1.6680482e-038
0.076594211 0.024654657 0.0040671215 1.7326931e-038
0.078490153 0.026174463 0.003703919 1.7051417e-038
0.080270626 0.0261732 0.0048010275 1.6684797e-038
0.082152888 0.027693029 0.0044295201 1.2365726e-038
0.08392895 0.027691837 0.0055240095 4.9127002e-039
0.085705079 0.027690668 0.0066185789 2.7065085e-039
0.087525375 0.028450076 0.0069747325 1.8789114e-039
0.089382857 0.029970098 0.0065881135 1.6952376e-039
0.091231339 0.031490117 0.0061960486 1.7874361e-039
0.093033709 0.032249637 0.0065413192 1.8796317e-039
0.094761983 0.031488109 0.0083723515 2.1547752e-039
0.096462488 0.029966079 0.010952033 2.8916172e-039
0.098172411 0.028444029 0.01353761 2.8919759e-039
0.099863738 0.026161518 0.016877446 3.1660363e-039
0.10151777 0.022357859 0.021725843 3.994355e-039
0.10310159 0.015512086 0.029593762 5.4658726e-039
0.044358078 0.0012943642 0.0043733725 6.3766269e-039
0.046303511 0.0020548496 0.004808431 6.8300478e-039
0.048244208 0.0028153555 0.005240588 6.3686927e-039
0.050357629 0.0051002223 0.0042528315 7.1091613e-039
0.052370735 0.0066229235 0.0039665028 7.3911642e-039
0.054458722 0.0089078462 0.0029631322 5.6441359e-039
0.056369215 0.009668448 0.0033767954 6.64783e-039
0.058354571 0.01119127 0.0030734115 1.4920128e-038
0.060330693 0.012714078 0.0027644159 1.5563327e-038
0.062297583 0.014236956 0.0024497188 1.7045634e-038
0.064255275 0.015759822 0.0021294344 1.7509858e-038
0.066274136 0.018044926 0.0010836722 1.7509516e-038
0.068143085 0.018805686 0.0014719364 1.8984646e-038
0.069941618 0.018804308 0.0025800141 1.5204624e-038
0.071803689 0.019565124 0.0029641176 1.4466726e-038
0.073661171 0.020325966 0.0033454306 8.0350594e-039
0.075573005 0.02184906 0.0029970701 9.5073042e-039
0.077419072 0.022609964 0.0033714352 1.2079753e-038
0.07931494 0.024133075 0.0030133617 1.4565396e-038
0.081097603 0.024131864 0.0041119028 1.6596584e-038
0.082930155 0.024892911 0.0044780225 1.2452842e-038
0.084710687 0.02489176 0.0055753347 3.5333769e-039
0.086536482 0.025652822 0.0059374347 2.4306419e-039
0.088357829 0.026413921 0.0062968289 2.1554997e-039
0.090174735 0.027175054 0.0066535333 1.6952376e-039
0.091987178 0.027936224 0.00700755 2.2484142e-039
0.09379518 0.028697476 0.0073588435 2.1554983e-039
0.095531382 0.027934298 0.0091923466 2.6150303e-039
0.09724097 0.026409015 0.011772635 2.6153877e-039
0.098989047 0.025645945 0.013613532 3.0756455e-039
0.10066144 0.022596296 0.017697409 3.8099652e-039
0.10230343 0.018022291 0.023288932 4.7293963e-039
0.050917044 0.00072194543 0.0056108441 2.8800733e-039
0.053107534 0.0037756497 0.0039176615 2.1410677e-039
0.055196598 0.0060655875 0.0029226574 5.4536182e-039
0.057191171 0.0075917123 0.0026301369 9.8631219e-039
0.059254874 0.0098817078 0.0016195577 1.4737895e-038
0.061152551 0.010644072 0.0020280224 1.5843511e-038
0.063193187 0.012934125 0.0010033018 1.7140341e-038
0.065148577 0.014460356 0.00068675564 1.6127292e-038
0.067094691 0.01598661 0.00036451989 1.7971932e-038
0.068964735 0.016749129 0.0007560529 1.7787909e-038
0.070830144 0.017511629 0.0011447968 1.3636991e-038
0.07262864 0.01751034 0.0022529911 1.0882326e-038
0.07448718 0.018272895 0.0026375852 8.7715482e-039
0.076341197 0.019035473 0.0030194176 1.3000251e-038
0.078190647 0.019798081 0.0033984859 1.7976612e-038
0.080035552 0.020560764 0.003774744 1.7239764e-038
0.08182504 0.020559607 0.004877578 1.7608928e-038
0.083663218 0.021322306 0.0052498169 1.7702582e-038
0.0855432 0.022848856 0.004887227 7.7584977e-039
0.087370075 0.023611665 0.0052525448 4.8197955e-039
0.089150801 0.023610633 0.0063501582 1.5115722e-039
0.090931602 0.023609629 0.0074478625 1.6037651e-039
0.092749722 0.024372485 0.007807971 2.6157534e-039
0.094528534 0.024371546 0.00890454 2.7994244e-039
0.096274957 0.023606807 0.010741852 3.0752896e-039
0.098026186 0.022842053 0.012582222 3.5351846e-039
0.099754192 0.021313544 0.015168934 3.0745637e-039
0.10144026 0.018257342 0.019251185 3.2582291e-039
0.1030513 0.012145779 0.026329899 5.2825533e-039
0.053848758 0.00092170201 0.0038614259 3.8967504e-039
0.055938955 0.0032166569 0.0028748205 5.5472516e-039
0.057856191 0.0039806953 0.0032979166 7.4743354e-039
0.059923321 0.0062757051 0.0022971486 1.2439866e-038
0.061901633 0.0078052422 0.0019998327 1.5203919e-038
0.064016074 0.010865756 0.00027015968 1.6958127e-038
0.065971352 0.012395398 -4.1335006e-005 1.7788967e-038
0.067917451 0.013925011 -0.00035840971 1.8433986e-038
