# .PCD v0.7 - Point Cloud Data file format
VERSION 0.7
FIELDS x y z rgb
SIZE 4 4 4 4
TYPE F F F F
COUNT 1 1 1 1
WIDTH 950
HEIGHT 1
VIEWPOINT 0 0 0 1 0 0 0
POINTS 950
DATA ascii
0.11642819 0.11368874 0.016864303 1.1217995e-038
0.11822384 0.11433791 0.015792336 9.6463467e-039
0.1202842 0.11433376 0.015481366 1.9348849e-038
0.12234437 0.11432961 0.015170397 2.0741145e-038
0.12467992 0.11367206 0.015618789 8.1024212e-039
0.12702064 0.11301448 0.016066361 9.3744373e-039
0.12908554 0.11301021 0.015754554 1.9812344e-038
0.13143386 0.11235251 0.016200922 1.3639192e-038
0.13321471 0.11300156 0.015130884 1.4273038e-038
0.13556801 0.11234381 0.015576459 2.0555305e-038
0.13734312 0.11299283 0.01450722 1.9176691e-038
0.13940704 0.11298842 0.014195376 1.751465e-038
0.14117378 0.1136374 0.01312742 9.0092547e-039
0.14293496 0.11428634 0.012060242 1.9344527e-038
0.14499295 0.11428192 0.011749268 2.07379e-038
0.14735578 0.11362411 0.012193257 2.0649303e-038
0.1497238 0.11296628 0.012636427 1.4188412e-038
0.15209697 0.11230839 0.013078886 1.057154e-038
0.1541623 0.11230392 0.012766739 2.2207269e-038
0.15591171 0.1129529 0.011701274 1.8717508e-038
0.15988427 0.10902791 0.01590728 1.8901899e-038
0.0047877533 0.099455543 0.047882818 7.4667544e-039
0.0048766653 0.11058667 0.034297634 1.8717508e-038
0.0067108441 0.11189606 0.03242873 1.7888828e-038
0.0090347379 0.11058623 0.033680528 1.2909905e-038
0.011369347 0.1092763 0.034930538 1.4016252e-038
0.013192673 0.11058538 0.03306292 1.2817713e-038
0.015404746 0.10993006 0.033532534 1.5767972e-038
0.01748628 0.10992943 0.033223066 1.1434778e-038
0.019706316 0.10927393 0.033691261 1.392442e-038
0.021931659 0.10861833 0.034158539 1.6413703e-038
0.02387443 0.10927217 0.033070911 1.0329155e-038
0.026251642 0.10796158 0.03431382 1.5860172e-038
0.027892983 0.10992485 0.031673972 1.2909552e-038
0.029974073 0.10992365 0.031363811 1.2909908e-038
0.032055121 0.1099224 0.031053597 1.3002102e-038
0.034293387 0.10926624 0.031518236 1.2817709e-038
0.035896815 0.11122915 0.028883623 1.5675777e-038
0.037321255 0.1138468 0.025477083 1.8441646e-038
0.039385773 0.11384519 0.025168849 1.8533485e-038
0.041282065 0.11449835 0.024087086 1.7704085e-038
0.043856021 0.11253212 0.026098032 1.7335302e-038
0.045752093 0.11318503 0.025016094 1.7150911e-038
0.047818817 0.1131831 0.02470709 1.7611889e-038
0.050064251 0.11252625 0.02516976 1.7243107e-038
0.052133396 0.11252411 0.024860129 1.7520048e-038
0.054386612 0.11186709 0.025321424 1.6966877e-038
0.056458164 0.11186482 0.025011273 1.8534201e-038
0.058719147 0.1112076 0.02547121 1.8257256e-038
0.060408577 0.11251483 0.023620892 1.7889196e-038
0.06267193 0.11185747 0.024080232 1.7335304e-038
0.064742886 0.11185488 0.023769742 1.7427499e-038
0.067013986 0.11119733 0.02422777 1.7519695e-038
0.069087282 0.11119458 0.023916716 1.7980672e-038
0.071366072 0.11053693 0.024373356 1.8165063e-038
0.073025033 0.11184373 0.022526998 1.7704078e-038
0.075095139 0.11184078 0.022216145 1.7611529e-038
0.076737665 0.11314743 0.020372123 1.8900107e-038
0.078802049 0.11314432 0.02006191 1.8712833e-038
0.08086627 0.11314116 0.019751688 2.0368392e-038
0.083373792 0.1118282 0.020972062 9.0182539e-039
0.085218571 0.11247978 0.019895971 8.0908899e-039
0.087057784 0.11313129 0.01882061 2.1933199e-038
0.088891461 0.11378274 0.017746 1.1131916e-038
0.091416977 0.11246952 0.018963352 1.2978709e-038
0.093717873 0.11181109 0.019415701 1.7970954e-038
0.096023925 0.11115257 0.019867241 1.8606962e-038
0.098335117 0.110494 0.020317892 9.4673546e-039
0.1004083 0.11049028 0.020005574 1.9902021e-038
0.10223542 0.11114141 0.018931516 1.5020693e-038
0.10430552 0.11113758 0.018619521 7.6284825e-039
0.10612418 0.11178865 0.017546561 1.2504766e-038
0.10819119 0.11178474 0.017234907 1.8684747e-038
0.11000143 0.11243569 0.016163126 2.0921217e-038
0.11232458 0.11177678 0.016611509 1.9631198e-038
0.11412905 0.11242765 0.015540485 8.175541e-039
0.11619257 0.11242358 0.015229139 1.9326169e-038
0.11825585 0.11241946 0.014917782 2.147403e-038
0.12031895 0.11241531 0.014606373 1.9264929e-038
0.1218366 0.11372102 0.012779631 1.917346e-038
0.1238939 0.1137168 0.012469013 2.0000335e-038
0.12595104 0.11371256 0.012158406 9.8339763e-039
0.1282886 0.11305331 0.01260421 1.6121639e-038
0.13063131 0.11239404 0.013049261 1.9169491e-038
0.13269316 0.11238969 0.012737808 7.9047008e-039
0.13475482 0.11238533 0.012426344 1.6767724e-038
0.13652495 0.11303595 0.01136006 1.9361081e-038
0.13858354 0.11303157 0.011049041 1.9176691e-038
0.14064194 0.11302713 0.010737994 2.0554951e-038
0.14240077 0.11367771 0.0096733319 1.6866404e-038
0.14415404 0.11432833 0.0086094607 1.5761498e-038
0.14620656 0.11432392 0.0082992911 1.5944449e-038
0.14856623 0.1136644 0.0087415744 1.6494034e-038
0.15124114 0.11234988 0.0099350745 1.9813064e-038
0.15298837 0.11300045 0.008872116 1.8065667e-038
0.15473008 0.11365101 0.0078099854 1.8624237e-038
0.1577386 0.11168142 0.009751942 1.8717508e-038
0.0047727306 0.096844561 0.047763821 7.0997726e-039
0.0046336087 0.10931646 0.032656893 1.8164334e-038
0.0063464306 0.11128553 0.030014126 1.8533838e-038
0.0084175477 0.11128528 0.029706666 1.2080147e-038
0.010871131 0.10931563 0.031730939 1.2909908e-038
0.012689841 0.11062805 0.029868301 1.3094299e-038
0.014896389 0.10997103 0.030336617 1.6689929e-038
0.016837144 0.11062685 0.02925178 1.2356734e-038
0.018910695 0.11062612 0.028943377 1.2633322e-038
0.020984208 0.1106253 0.02863485 1.6689933e-038
0.022914018 0.11128079 0.027551327 1.0973804e-038
0.025131002 0.11062338 0.028017469 1.6228594e-038
0.027055304 0.11127871 0.026934523 1.0235879e-038
0.029277479 0.11062112 0.027399659 1.014368e-038
0.031350587 0.11061985 0.027090589 1.3647473e-038
0.033423603 0.11061849 0.026781417 1.2909908e-038
0.035496525 0.11061704 0.026472148 1.5398832e-038
0.037082095 0.11258479 0.023846582 1.798031e-038
0.038981657 0.11323965 0.022766612 1.8625681e-038
0.040875722 0.1138944 0.021687403 1.8349097e-038
0.043275733 0.1125797 0.022921503 1.7888476e-038
0.045166887 0.1132343 0.021842461 1.844129e-038
0.047228366 0.11323237 0.021534232 1.8349454e-038
0.049289741 0.11323033 0.021225875 1.7704441e-038
0.051350977 0.11322822 0.020917481 1.7704441e-038
0.053595964 0.11256953 0.021377867 1.7980672e-038
0.055473004 0.11322375 0.020300381 1.7611889e-038
0.057723086 0.11256491 0.020759806 1.7243107e-038
0.059786417 0.11256247 0.020450659 1.4477235e-038
0.062044218 0.1119035 0.020908687 1.7427499e-038
0.063912608 0.11255737 0.019832099 1.7058715e-038
0.066175476 0.11189825 0.020289183 1.6966521e-038
0.06803818 0.11255196 0.01921327 1.7242748e-038
0.070511408 0.1112362 0.020435009 1.8164703e-038
0.072579131 0.1112333 0.020124599 1.7334939e-038
0.074435964 0.11188684 0.0190493 1.7704085e-038
0.075860463 0.11385331 0.01644584 1.8532408e-038
0.07791692 0.11385022 0.016136851 9.668305e-039
0.080191962 0.11319058 0.016591445 1.1026762e-038
0.082693607 0.11187433 0.017808411 1.3153381e-038
0.084533423 0.11252751 0.016735185 2.0368396e-038
0.086594492 0.11252417 0.016425194 1.8344053e-038
0.088196404 0.11383382 0.014591032 1.972807e-038
0.090483882 0.11317385 0.015043317 2.0464913e-038
0.092776529 0.11251374 0.015494774 2.0833697e-038
0.095074318 0.11185362 0.015945332 2.2761526e-038
0.097137086 0.11184999 0.015634697 8.6390345e-039
0.099199615 0.11184628 0.015323966 1.8146707e-038
0.101262 0.11184251 0.015013206 1.3729955e-038
0.10307589 0.11249524 0.013943234 8.8245103e-039
0.10513516 0.11249141 0.013632813 2.3130663e-038
0.10694061 0.11314409 0.012563945 2.0186167e-038
0.10899679 0.11314015 0.012253872 1.013649e-038
0.11131168 0.11247955 0.012701366 1.9264578e-038
0.1133701 0.11247552 0.012390831 1.4280251e-038
0.11569262 0.11181489 0.012837049 1.5479515e-038
0.11748634 0.11246733 0.011769674 1.7330262e-038
0.11954412 0.11246318 0.011459077 1.1428304e-038
0.12132938 0.11311563 0.010392889 1.8252218e-038
0.12338409 0.11311141 0.010082652 1.3089263e-038
0.12516092 0.11376377 0.0090176901 1.4195245e-038
0.12749287 0.11310289 0.0094621815 2.0188323e-038
0.12954696 0.11309861 0.0091519495 1.8620998e-038
0.13188654 0.11243759 0.0095952703 1.8437683e-038
0.13394289 0.11243326 0.0092846388 1.8991577e-038
0.13570797 0.11308553 0.0082211904 1.8808633e-038
0.13776125 0.11308115 0.0079109455 1.8532406e-038
0.13981433 0.11307675 0.0076007256 1.8716796e-038
0.14186719 0.11307229 0.0072904723 1.8255098e-038
0.14361814 0.11372452 0.0062291566 1.8712842e-038
0.14536357 0.11437675 0.005168654 1.8528448e-038
0.14771762 0.11371566 0.0056095952 1.8252584e-038
0.15007679 0.11305451 0.0060497224 1.9451127e-038
0.15244119 0.11239331 0.0064891037 1.9451127e-038
0.15418054 0.11304558 0.0054294486 1.9451483e-038
0.15686768 0.11172768 0.0066167638 1.9085218e-038
0.004271402 0.10870408 0.030239535 1.8809341e-038
0.0058607976 0.11133616 0.026827568 1.8533838e-038
0.0078021893 0.11199396 0.025745299 1.475382e-038
0.010119734 0.11067745 0.026989223 1.3002102e-038
0.012188228 0.110677 0.026681926 1.392406e-038
0.014256675 0.11067646 0.026374526 1.6597732e-038
0.016189823 0.11133388 0.025293063 1.2448927e-038
0.018255493 0.11133315 0.024985813 9.8674519e-039
0.020180468 0.11199044 0.023905281 1.6873965e-038
0.022243286 0.11198952 0.023598196 1.2079791e-038
0.024598025 0.11067236 0.024835763 1.4384682e-038
0.026666079 0.1106713 0.024527706 1.5675422e-038
0.028734062 0.11067013 0.024219524 1.0696136e-038
0.030955989 0.11001078 0.024682388 1.4199568e-038
0.032869752 0.1106675 0.023602871 1.3001745e-038
0.034937441 0.11066607 0.023294382 1.4661269e-038
0.036680818 0.11198071 0.021445844 1.6966158e-038
0.038742926 0.1119791 0.021137984 1.844165e-038
0.040469982 0.11329357 0.019291721 1.844165e-038
0.042696651 0.11263371 0.019753192 1.7888476e-038
0.044582874 0.11328992 0.018677071 1.8718232e-038
0.046639148 0.11328799 0.018369623 1.8349453e-038
0.048517063 0.11394405 0.017294552 1.7058711e-038
0.050570384 0.11394195 0.016987327 1.7980666e-038
0.052990709 0.11262358 0.018213483 1.7980666e-038
0.054862835 0.11327942 0.017138949 1.8257251e-038
0.056918405 0.11327706 0.016831055 1.798031e-038
0.059165444 0.11261653 0.017288627 1.6597376e-038
0.061612017 0.11129779 0.018510493 1.8533485e-038
0.063675158 0.1112952 0.018201169 1.8717876e-038
0.065538459 0.11195067 0.01712738 1.8810072e-038
0.067193881 0.11326417 0.015290471 1.8717876e-038
0.06945353 0.11260326 0.015745666 1.8256896e-038
0.071510643 0.1126004 0.015436869 1.4753464e-038
0.073567569 0.11259742 0.015127961 1.7427139e-038
0.075411238 0.11325258 0.014056741 1.9545842e-038
0.077465117 0.11324948 0.013748112 1.5017096e-038
0.079737283 0.1125882 0.014200978 9.9290558e-039
0.082014576 0.11192683 0.014652929 2.2851563e-038
0.083849467 0.1125817 0.013582658 1.760397e-038
0.085905276 0.11257838 0.013273432 1.1427582e-038
0.087502539 0.11389127 0.011444361 1.9081979e-038
0.090016305 0.11257149 0.012654785 1.5394155e-038
0.092071541 0.11256798 0.012345409 1.2347379e-038
0.094363742 0.11190622 0.012794677 1.0584861e-038
0.096181348 0.11256076 0.011726509 1.7953671e-038
0.098478526 0.11189889 0.012174875 2.0740785e-038
0.10053561 0.11189514 0.011864915 1.9635873e-038
0.10234454 0.11254952 0.010797841 1.9357129e-038
0.10439853 0.11254568 0.010488224 1.7514653e-038
0.10645232 0.11254178 0.010178558 1.8527364e-038
0.10876182 0.11187965 0.01062473 1.9726631e-038
0.11081784 0.11187566 0.010314617 1.8806113e-038
0.11287366 0.11187162 0.010004454 1.9450763e-038
0.11519326 0.1112093 0.010448971 1.8989783e-038
0.11698464 0.11186343 0.0093840919 1.8897587e-038
0.11903985 0.11185931 0.009073901 1.8068548e-038
0.12082276 0.11251333 0.0080102384 1.8622441e-038
0.12314955 0.11185089 0.0084534548 1.8530599e-038
0.12492673 0.11250489 0.0073905913 1.8531322e-038
0.12697838 0.11250062 0.0070807328 1.8071067e-038
0.12874712 0.11315456 0.0060190512 1.8530599e-038
0.13136646 0.11183371 0.0072124209 1.8989783e-038
0.13313213 0.11248762 0.0061511546 1.9267089e-038
0.13518293 0.11248326 0.0058413036 1.8990505e-038
0.13723357 0.11247885 0.0055314265 1.9728787e-038
0.139284 0.11247446 0.005221596 1.9267812e-038
0.14163299 0.11181173 0.0056611523 1.9174895e-038
0.14308286 0.11312389 0.0038529504 1.8344415e-038
0.14512999 0.11311943 0.0035435259 1.8989066e-038
0.14687021 0.11377329 0.0024859468 1.6405427e-038
0.14953321 0.1124522 0.0036725281 1.557387e-038
0.15158249 0.11244772 0.0033627767 1.4190936e-038
0.1533168 0.11310159 0.0023060767 1.0777538e-038
0.15568049 0.11243878 0.002743328 1.8528087e-038
0.0039097522 0.10809483 0.027826127 1.6504447e-038
0.0053763883 0.11139316 0.02364918 1.8534198e-038
0.0071886973 0.1127123 0.021796441 1.7335657e-038
0.0094976798 0.11139255 0.023037285 1.1158191e-038
0.011687834 0.11073238 0.023503765 1.3463079e-038
0.013618789 0.11139154 0.022424892 1.6136752e-038
0.015679281 0.11139091 0.022118574 1.2356731e-038
0.017602099 0.11204989 0.021040672 1.1157112e-038
0.019659791 0.11204908 0.020734515 1.5767616e-038
0.021860383 0.11138846 0.021198852 1.3831508e-038
0.023920594 0.11138748 0.020892058 1.3186139e-038
0.026129125 0.11072669 0.021354992 1.6504104e-038
0.02804081 0.11138523 0.020278169 9.8663757e-039
0.03025452 0.11072426 0.020740105 1.4476154e-038
0.032160658 0.11138263 0.019663861 1.4015899e-038
0.034379531 0.11072148 0.020124786 1.5122247e-038
0.036280103 0.11137968 0.019049181 1.7150911e-038
0.038175195 0.1120378 0.017974261 1.7796277e-038
0.040064804 0.11269582 0.01690005 1.8626041e-038
0.042118769 0.11269404 0.016593145 1.7611889e-038
0.044172619 0.11269221 0.016286174 1.8626037e-038
0.046051111 0.11335 0.015213305 1.8902624e-038
0.047924094 0.11400773 0.014141077 1.7243102e-038
0.050152764 0.11334588 0.0145997 1.7427495e-038
0.052386656 0.11268397 0.015057368 1.798031e-038
0.054439802 0.11268172 0.014749974 1.8349094e-038
0.056304179 0.1133391 0.013678665 1.798031e-038
0.058354374 0.11333669 0.01337149 1.7242746e-038
0.060986381 0.11135498 0.015353264 1.8256896e-038
0.063044295 0.11135238 0.015044708 1.8717876e-038
0.064902671 0.1120095 0.013973925 1.8533485e-038
0.066755511 0.11266652 0.012903837 1.844129e-038
0.068602815 0.1133235 0.011834502 1.8533485e-038
0.070859402 0.11266087 0.012287874 1.7242746e-038
0.072700992 0.11331771 0.0112192 1.7427139e-038
0.074962571 0.11265493 0.011671633 1.8625682e-038
0.07701391 0.11265186 0.011363439 1.9545119e-038
0.07906504 0.11264871 0.011055142 1.825294e-038
0.081336789 0.11198574 0.011505814 1.7515375e-038
0.083166718 0.11264224 0.010438441 1.8621721e-038
0.085217267 0.11263891 0.010129988 1.8897587e-038
0.08703877 0.11329532 0.0090637505 1.8899028e-038
0.089317791 0.11263207 0.0095129758 1.862352e-038
0.091367729 0.11262856 0.0092043867 1.89905e-038
0.093654402 0.11196519 0.0096523128 1.8898664e-038
0.095706597 0.11196155 0.009343219 1.8345491e-038
0.097758614 0.11195787 0.0090341028 1.8714993e-038
0.099565476 0.11261395 0.0079695964 1.8900101e-038
0.10136677 0.11326999 0.0069058435 1.8530233e-038
0.10341282 0.11326616 0.0065974221 1.8529155e-038
0.10545863 0.11326228 0.0062889485 1.8989052e-038
0.10750423 0.11325838 0.0059804777 1.9634424e-038
0.10980795 0.11259455 0.0064252745 1.9265643e-038
0.1118558 0.11259054 0.0061163343 1.972734e-038
0.11390344 0.11258648 0.0058073606 1.9907769e-038
0.11568449 0.11324225 0.0047462769 2.1104879e-038
0.11799806 0.11257825 0.0051893797 2.1195629e-038
0.12004508 0.11257409 0.0048803892 2.0365505e-038
0.12236623 0.11191 0.0053222477 2.0731408e-038
0.12413842 0.11256564 0.0042623114 2.1925991e-038
0.12618478 0.11256136 0.003953238 2.0444383e-038
0.12794851 0.11321697 0.0028944779 1.8509723e-038
0.13056192 0.11189286 0.0040844083 1.6113715e-038
0.13232256 0.1125484 0.0030260384 1.6469898e-038
0.13436808 0.11254405 0.0027169995 1.5363919e-038
0.1361203 0.11319958 0.0016598552 1.8318855e-038
0.13816273 0.11319517 0.0013511935 1.5643742e-038
0.14050342 0.11253082 0.001789826 1.840961e-038
0.14254811 0.11252642 0.001480815 1.407678e-038
0.1445926 0.11252195 0.0011717891 1.70256e-038
0.14633046 0.11317744 0.0001167208 1.7490178e-038
0.14868104 0.11251302 0.00055381283 1.9797229e-038
0.15103684 0.11184859 0.0009900881 1.1770449e-038
0.15276876 0.11250407 -6.4107589e-005 1.1669613e-038
0.15512949 0.11183964 0.00037143938 1.7858959e-038
0.0034302128 0.10814998 0.024644643 1.5030759e-038
0.0047720182 0.11211786 0.019707378 1.8626394e-038
0.006577028 0.11344031 0.017860027 1.8442003e-038
0.008877472 0.11211723 0.019097837 1.0605017e-038
0.011188649 0.1107941 0.020333868 1.4292842e-038
0.012982773 0.11211624 0.018487811 1.5583581e-038
0.014900727 0.112777 0.017412888 1.3739668e-038
0.016813252 0.1134376 0.016338687 1.4199568e-038
0.019000331 0.11277546 0.016803013 1.6044203e-038
0.021192702 0.11211319 0.017266456 1.3831508e-038
0.023245018 0.11211222 0.016960884 1.4937856e-038
0.025297243 0.11211114 0.016655162 1.5675422e-038
0.027198656 0.11277135 0.015581997 1.3554923e-038
0.029248009 0.1127701 0.015276475 1.632079e-038
0.031453408 0.1121074 0.015737426 1.6689573e-038
0.033822853 0.11078326 0.016963491 1.6412986e-038
0.035879999 0.11078174 0.016656477 1.8073223e-038
0.037772849 0.11144149 0.015584058 1.7612245e-038
0.039660219 0.11210119 0.014512377 1.8718593e-038
0.041711636 0.1120994 0.014205855 1.7981025e-038
0.043590676 0.11275897 0.013135124 1.8718232e-038
0.045639168 0.11275706 0.01282886 1.9087015e-038
0.047332339 0.11407778 0.010995884 1.8072863e-038
0.049735729 0.11275295 0.012216035 1.7888472e-038
0.051600847 0.11341216 0.011147002 1.7888116e-038
0.053646076 0.11340991 0.010840788 1.7519332e-038
0.055502839 0.11406896 0.0097728083 1.8717876e-038
0.057736095 0.11340516 0.01022807 1.5214444e-038
0.060168263 0.11207988 0.011443445 1.8072507e-038
0.062414616 0.11141593 0.011896583 1.7888116e-038
0.064268045 0.11207468 0.010828679 1.7611885e-038
0.066317715 0.11207198 0.010521218 1.7611529e-038
0.067958295 0.11339201 0.0086950492 1.7427495e-038
0.070209354 0.11272778 0.0091471178 1.6873965e-038
0.072465591 0.1120634 0.0095983241 1.7242025e-038
0.074514508 0.11206042 0.0092905853 1.8256896e-038
0.076563261 0.11205734 0.0089827348 1.8902268e-038
0.078393981 0.11271568 0.0079175765 1.8809352e-038
0.080660179 0.11205103 0.0083669517 1.9361085e-038
0.082708359 0.11204778 0.0080589484 1.9451837e-038
0.08475633 0.11204443 0.007750893 1.8621002e-038
0.086575523 0.11270253 0.0066870982 1.8713195e-038
0.088851668 0.11203761 0.0071346471 1.8989783e-038
0.090665109 0.11269558 0.0060715592 1.9174526e-038
0.092709579 0.11269204 0.0057637244 1.9358557e-038
0.094753854 0.11268841 0.0054558311 1.9448958e-038
0.097039901 0.11202326 0.0059015937 1.9818459e-038
0.098841794 0.11268105 0.0048399651 2.0371634e-038
0.10063813 0.11333873 0.0037791356 2.0550982e-038
0.10242889 0.11399639 0.0027190987 2.1189499e-038
0.1047194 0.11333106 0.0031638602 1.2887928e-038
0.10701508 0.11266565 0.0036077667 1.7129283e-038
0.10931589 0.11200016 0.0040509179 1.3801974e-038
0.11136114 0.11199614 0.0037423503 1.7583429e-038
0.11314279 0.11265365 0.0026833517 1.8328188e-038
0.11571701 0.1113265 0.0038751978 1.8686536e-038
0.11776429 0.11132237 0.0035661887 1.536425e-038
0.11953995 0.11197973 0.0025079763 2.0728878e-038
0.12131 0.11263708 0.0014504874 1.2876771e-038
0.12335128 0.11263286 0.0011422755 2.108757e-038
0.1259512 0.11130549 0.002330008 1.176359e-038
0.12771529 0.11196274 0.0012733759 1.8409964e-038
0.1297586 0.11195842 0.00096469559 2.0996483e-038
0.13151419 0.11261566 -9.0770423e-005 1.840601e-038
0.1335544 0.1126113 -0.00039904751 1.6840483e-038
0.13588725 0.11194535 3.870111e-005 1.5735936e-038
0.13792968 0.11194091 -0.00026997179 1.610472e-038
0.13967378 0.11259814 -0.0013237791 1.610292e-038
0.14141233 0.11325527 -0.0023767762 1.4721426e-038
0.14344884 0.11325084 -0.0026845979 1.6473146e-038
0.14548515 0.1132464 -0.0029923916 1.3894188e-038
0.14783013 0.11258034 -0.0025566416 1.555551e-038
0.15018024 0.11191422 -0.0021216432 1.9518122e-038
0.15222134 0.11190975 -0.0024301829 2.1181963e-038
0.1542622 0.11190528 -0.0027387086 1.9810549e-038
0.15726149 0.10991593 -0.00082144607 1.927033e-038
0.0031882611 0.10688553 0.023011342 1.1527324e-038
0.0042903437 0.11218926 0.016547577 1.8718948e-038
0.0062143095 0.11285197 0.01547447 1.7151267e-038
0.0083853537 0.11218864 0.015939578 1.5583581e-038
0.01069067 0.1108622 0.017172232 1.6321146e-038
0.012480204 0.11218766 0.015331138 1.6966158e-038
0.014258945 0.11351299 0.013491562 1.7703725e-038
0.016163873 0.11417528 0.012420697 1.7888116e-038
0.0183427 0.11351148 0.012884065 1.7427139e-038
0.020526849 0.11284761 0.013346528 1.8441291e-038
0.022716312 0.11218363 0.013808087 1.8164704e-038
0.024615571 0.11284556 0.012737559 1.8349097e-038
0.026659779 0.1128444 0.012432951 1.8625682e-038
0.028550832 0.11350616 0.011363427 1.8717876e-038
0.030903768 0.11217884 0.012587759 1.8717876e-038
0.03326739 0.11085141 0.013810446 1.844129e-038
0.035480436 0.11018688 0.014267786 1.8810788e-038
0.037207186 0.11151134 0.012434659 1.8995177e-038
0.039089642 0.11217266 0.011365852 1.8902624e-038
0.041305058 0.1115079 0.011822507 1.7888472e-038
0.043353807 0.11150606 0.011516314 1.8626037e-038
0.045402404 0.11150414 0.011210028 1.8994462e-038
0.047273602 0.11216513 0.010142455 1.8349453e-038
0.049499225 0.11150005 0.010597176 1.6966514e-038
0.051364779 0.11216091 0.0095302463 1.798031e-038
0.053039491 0.11348468 0.007704074 1.8072507e-038
0.054891303 0.11414539 0.0066389907 1.8533485e-038
0.057119019 0.11347999 0.0070929783 1.7980313e-038
0.059738699 0.11148845 0.009063594 1.8533488e-038
0.061982211 0.1108228 0.0095150499 1.798031e-038
0.064032137 0.11082018 0.0092076249 1.8441646e-038
0.065880455 0.11148056 0.0081425328 1.8257251e-038
0.067723244 0.1121408 0.0070781931 1.8441646e-038
0.069560505 0.11280102 0.00601462 1.8349453e-038
0.071811154 0.11213506 0.006464473 1.7335295e-038
0.073854841 0.11213207 0.0061575049 1.7888116e-038
0.075898349 0.11212903 0.0058504934 1.9178132e-038
0.077506587 0.11345205 0.0040331595 1.871571e-038
0.079984762 0.11212274 0.0052362853 1.7790877e-038
0.082027659 0.1121195 0.004929089 1.7789791e-038
0.084295936 0.11145309 0.0053757578 1.5667492e-038
0.086112879 0.11211281 0.0043145437 1.5113244e-038
0.088386126 0.11144628 0.0047602914 1.4280962e-038
0.09019731 0.11210588 0.0036997814 1.298158e-038
0.092002921 0.11276545 0.0026400359 1.4916242e-038
0.094041929 0.11276183 0.0023329435 1.1409563e-038
0.096080713 0.1127582 0.0020258343 1.9067921e-038
0.098363623 0.11209137 0.0024697818 1.5365347e-038
0.10015766 0.11275072 0.0014114827 1.4992963e-038
0.10194614 0.11341003 0.00035394821 2.1180139e-038
0.1039814 0.11340617 4.7084875e-005 1.2598381e-038
0.10601643 0.11340228 -0.00025980454 2.0532941e-038
0.10805127 0.11339835 -0.00056670327 2.0528604e-038
0.11008589 0.11339435 -0.00087364949 1.7851689e-038
0.11238334 0.11272718 -0.00043234695 1.9430545e-038
0.11468592 0.11205997 8.1555918e-006 1.2875317e-038
0.11672523 0.11205586 -0.00029965024 1.8510399e-038
0.1184932 0.11271486 -0.0013545444 1.9068247e-038
0.12025561 0.11337385 -0.0024086256 1.1952656e-038
0.12228891 0.11336965 -0.0027156686 2.0258891e-038
0.12488021 0.11203904 -0.001531017 1.2319643e-038
0.12663664 0.11269797 -0.002584314 1.4352292e-038
0.12867196 0.11269366 -0.0028917687 1.6016844e-038
0.13041992 0.11335251 -0.003943881 1.7762796e-038
0.13274197 0.11268498 -0.0035066959 1.914753e-038
0.13477664 0.11268061 -0.0038141562 1.9703948e-038
0.13710625 0.112013 -0.003378191 2.1183038e-038
0.13884537 0.1126718 -0.0044290666 2.1008009e-038
0.14087941 0.1126674 -0.0047364859 2.1470069e-038
0.14261006 0.11332621 -0.0057861218 2.1381832e-038
0.14494693 0.1126585 -0.0053513283 2.1291794e-038
0.1469804 0.11265408 -0.0056586899 2.129216e-038
0.14932488 0.11198638 -0.0052250559 2.1017731e-038
0.15167449 0.11131863 -0.004792219 2.0187972e-038
0.15371269 0.11131416 -0.0051003313 2.0004654e-038
0.15606995 0.11064637 -0.0046685962 1.927105e-038
0.16229509 0.10201933 0.0046351179 1.9179212e-038
0.0034177499 0.10296233 0.024449231 1.0232625e-038
0.0041715703 0.11027313 0.015698435 1.8533838e-038
0.0059754485 0.11160212 0.013859968 1.8810788e-038
0.0078944508 0.11226638 0.012789619 1.8626397e-038
0.0099366643 0.11226592 0.012486221 1.834981e-038
0.011978846 0.1122654 0.012182722 1.8625681e-038
0.014020976 0.11226477 0.011879117 1.8164704e-038
0.016063036 0.11226407 0.011575375 1.6966161e-038
0.017965645 0.11292791 0.010506897 1.6873965e-038
0.020146942 0.11226239 0.010967632 1.8533488e-038
0.022044064 0.11292604 0.0098997168 1.8810073e-038
0.023935715 0.11358965 0.0088324714 1.8533848e-038
0.025972039 0.1135885 0.0085290037 1.8810435e-038
0.028008241 0.11358725 0.0082254605 1.8718235e-038
0.030199872 0.11292128 0.0086841304 1.5675781e-038
0.032713093 0.11092594 0.010665556 1.392442e-038
0.035081476 0.10959512 0.011883081 1.3094296e-038
0.036806308 0.11092285 0.010054571 1.871823e-038
0.038520299 0.11225051 0.0082276538 1.8718232e-038
0.040392332 0.11291339 0.0071624545 1.816506e-038
0.042773664 0.11158226 0.0083775427 1.8810072e-038
0.044817057 0.11158036 0.0080720447 1.7427495e-038
0.046683319 0.112243 0.0070073935 1.7243102e-038
0.048723739 0.11224093 0.0067021209 1.7427495e-038
0.050581686 0.11290345 0.0056385365 1.7150551e-038
0.052434076 0.11356594 0.0045756116 1.8994462e-038
0.054468695 0.11356363 0.0042708628 1.8993386e-038
0.056883924 0.11223185 0.0054801959 1.779484e-038
0.059309725 0.11090004 0.006687785 1.779592e-038
0.061354581 0.1108975 0.0063812365 1.7796276e-038
0.063200846 0.11155957 0.0053187832 1.816506e-038
0.065041564 0.11222156 0.0042570499 1.7980666e-038
0.067284331 0.11155412 0.0047061192 1.8165056e-038
0.06932582 0.11155129 0.0043996791 1.8072863e-038
0.071576275 0.11088368 0.0048473855 1.8072863e-038
0.073620081 0.11088071 0.0045404187 1.779592e-038
0.075449146 0.11154237 0.0034799529 1.9545476e-038
0.077272668 0.11220397 0.0024202764 6.3456666e-039
0.079750307 0.1108714 0.0036191707 1.1765749e-038
0.081570752 0.11153287 0.0025597466 2.0441125e-038
0.083836138 0.11086483 0.0030046888 1.0945682e-038
0.085650817 0.11152621 0.0019459873 2.0357178e-038
0.087921165 0.11085806 0.0023900392 1.5839957e-038
0.089963369 0.11085457 0.0020826226 1.5463633e-038
0.091769367 0.11151576 0.0010249838 2.0633058e-038
0.0935698 0.1121769 -3.1894073e-005 1.2136338e-038
0.095364682 0.11283802 -0.0010879878 1.8131926e-038
0.097642004 0.11216959 -0.00064536463 1.6942012e-038
0.099677786 0.11216583 -0.00095215999 1.370906e-038
0.10146397 0.11282682 -0.0020071482 1.6115866e-038
0.10324456 0.11348775 -0.0030614473 1.1781592e-038
0.10527432 0.11348388 -0.0033675171 1.7132536e-038
0.10756128 0.11281513 -0.00292663 1.4833047e-038
0.10985337 0.11214639 -0.0024866043 1.6494729e-038
0.11188783 0.11214236 -0.0027935728 1.8156778e-038
0.11445294 0.11080872 -0.0016090535 1.9542597e-038
0.11622418 0.11146941 -0.0026622014 1.9174171e-038
0.11826065 0.11146528 -0.0029696226 1.9359642e-038
0.12002343 0.1121259 -0.0040215985 2.0467427e-038
0.12205676 0.11212169 -0.004328643 2.0282673e-038
0.1243687 0.11145263 -0.0038919766 2.0282318e-038
0.1261228 0.11211319 -0.0049427534 1.9452199e-038
0.12815547 0.11210889 -0.0052498141 1.991318e-038
0.13018793 0.11210458 -0.0055568633 1.9453644e-038
0.13250972 0.11143539 -0.0051218206 1.9454e-038
0.13483661 0.11076617 -0.0046875784 1.927105e-038
0.1368738 0.11076179 -0.0049954299 1.8994821e-038
0.13891074 0.11075737 -0.0053032953 1.8994822e-038
0.14094751 0.11075294 -0.0056111263 1.908666e-038
0.14298405 0.11074851 -0.0059189545 1.9363247e-038
0.14532596 0.11007918 -0.0054870788 1.9638391e-038
0.14736478 0.11007472 -0.0057952665 1.9546917e-038
0.14971431 0.1094053 -0.0053645298 1.9363246e-038
0.15206896 0.10873591 -0.0049346257 1.9363246e-038
0.154745 0.10740165 -0.0037673917 1.9455442e-038
0.15711264 0.10673223 -0.0033394266 1.9547637e-038
0.1610934 0.10273816 0.00077414606 1.9639833e-038
0.0038116393 0.10968605 0.013314117 1.8807906e-038
0.0054906704 0.11168458 0.010715331 1.8626037e-038
0.0074047581 0.11235055 0.0096478416 1.8442006e-038
0.0094417501 0.11235008 0.0093452176 1.8810428e-038
0.011478697 0.11234956 0.0090424977 1.8902268e-038
0.013515575 0.11234895 0.008739667 1.5306638e-038
0.015688786 0.11168195 0.0091997227 1.4015904e-038
0.017589169 0.11234745 0.0081336834 1.5859812e-038
0.019625865 0.11234655 0.0078305155 1.7427139e-038
0.02166249 0.11234561 0.0075272694 1.8717876e-038
0.023699034 0.11234454 0.007223919 1.8810435e-038
0.0255857 0.11300968 0.0061595161 1.8718235e-038
0.027619367 0.11300843 0.0058563501 1.8902628e-038
0.029652946 0.11300712 0.0055531012 1.7427498e-038
0.032160025 0.11100684 0.0075289849 1.2357095e-038
0.034201451 0.11100534 0.0072243158 1.5583578e-038
0.036079541 0.11167008 0.006160642 1.8441643e-038
0.037952136 0.11233474 0.0050976179 1.9087015e-038
0.04015645 0.11166666 0.0055516562 1.8810428e-038
0.04236602 0.11099856 0.0060047777 1.8256896e-038
0.044406835 0.11099664 0.0056996364 1.7335295e-038
0.046447538 0.11099467 0.005394449 1.7888472e-038
0.048488077 0.1109926 0.0050891596 1.8072863e-038
0.050346464 0.11165674 0.0040276623 1.7888116e-038
0.052384023 0.11165452 0.0037225941 1.779592e-038
0.054421447 0.11165221 0.0034174616 1.7888116e-038
0.056648765 0.11098354 0.0038671824 1.779592e-038
0.058881324 0.11031477 0.0043160068 1.6044203e-038
0.060923629 0.11031223 0.0040098433 1.7704078e-038
0.062965773 0.11030965 0.0037036277 1.72431e-038
0.064806893 0.11097326 0.0026439917 1.6874317e-038
0.067049496 0.11030421 0.0030909474 1.7335295e-038
0.068678729 0.11163405 0.0012794905 1.6597732e-038
0.070714779 0.11163114 0.00097376807 1.5675777e-038
0.072750643 0.1116282 0.00066801859 1.7150551e-038
0.074786298 0.11162517 0.00036217505 1.9176694e-038
0.076821797 0.11162208 5.6298915e-005 1.4280975e-038
0.078857064 0.11161891 -0.00024965033 1.3424207e-038
0.080892131 0.1116157 -0.00055566523 1.998124e-038
0.083151959 0.11094607 -0.00011199992 1.6851986e-038
0.085189313 0.11094271 -0.00041852146 1.8886408e-038
0.087456778 0.11027294 2.379436e-005 1.8704179e-038
0.089496389 0.11026947 -0.00028318912 2.109947e-038
0.091300137 0.11093231 -0.0013383143 2.0733567e-038
0.093336627 0.11092872 -0.0016450058 2.1565137e-038
0.09537293 0.1109251 -0.0019517215 2.1659481e-038
0.097652718 0.11025503 -0.0015116241 2.1659488e-038
0.099444859 0.11091768 -0.0025652875 2.129287e-038
0.10123143 0.11158029 -0.0036181877 2.0282315e-038
0.10301241 0.1122429 -0.0046703359 2.1019164e-038
0.10478781 0.11290544 -0.0057216561 2.1293945e-038
0.10707186 0.11223512 -0.0052825357 2.1570532e-038
0.10962082 0.11089826 -0.0040997583 2.1753846e-038
0.11165536 0.11089424 -0.0044067209 2.1476906e-038
0.11368966 0.11089018 -0.0047137127 2.0833689e-038
0.11599153 0.11021966 -0.0042774742 1.9821337e-038
0.11802806 0.11021553 -0.0045848917 1.9270683e-038
0.12006436 0.11021136 -0.0048923348 1.9179566e-038
0.12210043 0.11020714 -0.005199804 1.9179212e-038
0.12413628 0.1102029 -0.0055072526 1.9363602e-038
0.12645309 0.10953217 -0.0050735106 1.9546917e-038
0.12877502 0.10886142 -0.0046405587 1.9363246e-038
0.13138865 0.10752407 -0.0034680041 1.9454363e-038
0.13343431 0.10751972 -0.0037770905 1.9363247e-038
0.13577163 0.10684884 -0.0033465819 1.9363247e-038
0.13811411 0.10617791 -0.0029168939 1.9547641e-038
0.14016445 0.10617349 -0.0032267431 1.9271053e-038
0.14221458 0.10616903 -0.0035366109 1.9455442e-038
0.14456712 0.10549805 -0.0031084837 1.9178856e-038
0.14692475 0.10482702 -0.0026811203 1.9363246e-038
0.14928755 0.10415598 -0.0022545615 1.9178856e-038
0.15165548 0.10348494 -0.0018288195 1.8994462e-038
0.15402852 0.10281386 -0.0014038589 1.9086659e-038
0.15640675 0.10214274 -0.00097962748 1.8994465e-038
0.15879013 0.10147166 -0.00055622868 1.8533488e-038
0.16182117 0.099467456 0.001336691 1.8256896e-038
0.0036921636 0.10776624 0.012460225 1.7424251e-038
0.0052523362 0.11043759 0.0091045341 1.8718232e-038
0.0070415935 0.1117731 0.0072767371 1.8810428e-038
0.0089480523 0.11244059 0.006212506 1.8902268e-038
0.010979776 0.11244006 0.00591056 1.8717876e-038
0.013011419 0.11243945 0.0056085056 1.6136396e-038
0.015179073 0.11177082 0.0060671698 1.4753464e-038
0.017074563 0.11243796 0.0050040921 1.6043126e-038
0.019247433 0.11176914 0.0054617114 1.82569e-038
0.021281531 0.11176819 0.0051588444 1.8809718e-038
0.023315519 0.11176712 0.0048558693 1.8625326e-038
0.025050465 0.11310183 0.0030351626 1.83491e-038
0.027231073 0.1124327 0.0034912049 1.908666e-038
0.029262111 0.11243137 0.0031883172 1.844129e-038
0.031608138 0.11109415 0.0044005737 1.7243102e-038
0.033644337 0.11109269 0.0040967176 1.7611885e-038
0.035680432 0.11109111 0.0037927439 1.7980666e-038
0.037716389 0.11108945 0.0034886894 1.8902628e-038
0.039583944 0.11175565 0.0024285191 1.9087019e-038
0.041446 0.11242177 0.0013690903 1.8902628e-038
0.043302547 0.11308783 0.00031036744 1.8718235e-038
0.045506302 0.11241791 0.00076194759 1.8349453e-038
0.047715265 0.11174792 0.0012126723 1.6782123e-038
0.049929466 0.11107785 0.0016624993 1.7243102e-038
0.051964477 0.11107564 0.0013578385 1.7243102e-038
0.053812254 0.1117413 0.00029990263 1.779592e-038
0.05603404 0.11107098 0.00074828882 1.8256896e-038
0.058068592 0.11106855 0.00044340733 1.5491029e-038
0.05990782 0.11173398 -0.00061355531 1.8257251e-038
0.061939329 0.1117314 -0.00091818999 1.8441646e-038
0.063970678 0.11172875 -0.0012228838 1.816506e-038
0.066205025 0.11105803 -0.00077690929 1.8441646e-038
0.068444565 0.11038721 -0.00033170637 1.8994818e-038
0.070272163 0.11105236 -0.0013874481 1.8717876e-038
0.072305456 0.11104942 -0.0016927957 1.8902624e-038
0.073910721 0.11238237 -0.0034965707 1.9177414e-038
0.076154865 0.11171132 -0.0030524889 1.9728787e-038
0.078184888 0.11170819 -0.0033576172 1.9453275e-038
0.080436662 0.11103699 -0.0029148776 1.954655e-038
0.082693607 0.11036565 -0.0024729259 1.954727e-038
0.084728375 0.11036231 -0.0027790363 1.9086292e-038
0.086992957 0.10969093 -0.0023384131 1.9362879e-038
0.089029983 0.10968745 -0.0026450269 1.9178132e-038
0.090596065 0.11102004 -0.0044436082 1.8994818e-038
0.093103401 0.10968038 -0.0032583568 1.9363962e-038
0.095380507 0.10900872 -0.0028199358 1.9547993e-038
0.097662777 0.108337 -0.0023823832 1.927033e-038
0.099457994 0.10900132 -0.0034343214 1.9638391e-038
0.10149638 0.10899752 -0.0037415409 1.8718232e-038
0.10353456 0.10899369 -0.0040488276 1.4470757e-038
0.10582662 0.10832174 -0.0036130119 8.561233e-039
0.10812382 0.10764977 -0.0031779986 1.1684356e-038
0.11042617 0.10697769 -0.0027437871 1.0574766e-038
0.11247147 0.10697364 -0.003052392 1.2134527e-038
0.11478133 0.10630152 -0.0026194816 1.6009265e-038
0.11682887 0.1062974 -0.0029284982 1.7308648e-038
0.11941651 0.10495708 -0.0017561251 1.9171282e-038
0.12119608 0.10562095 -0.0028063115 1.9913888e-038
0.12352112 0.10494863 -0.0023758812 1.8718593e-038
0.12557307 0.10494436 -0.0026857723 1.835053e-038
0.12818655 0.10360381 -0.0015174374 1.844129e-038
0.13052699 0.10293137 -0.0010894584 1.8349097e-038
0.13315871 0.10159076 7.5994059e-005 1.8441291e-038
0.13522315 0.10158636 -0.00023591332 1.8072508e-038
0.13787052 0.10024565 0.00092716422 1.82569e-038
0.1402341 0.099573053 0.0013515158 1.8072508e-038
0.1420089 0.10023671 0.00030175317 1.7888476e-038
0.14407781 0.10023222 -1.094304e-005 1.7796282e-038
0.14644875 0.099559553 0.0004122192 1.779592e-038
0.14912973 0.098218717 0.0015700683 1.7888117e-038
0.15120602 0.098214172 0.0012562126 1.8072507e-038
0.15359236 0.097541407 0.0016770465 1.779592e-038
0.15629677 0.096200466 0.002831297 1.7888116e-038
0.15869607 0.095527701 0.003250136 1.761153e-038
0.16078217 0.095523112 0.0029347548 1.7427499e-038
0.16383104 0.093513891 0.0048185065 1.7519332e-038
0.0033327709 0.10718201 0.010079596 1.8345844e-038
0.0046470701 0.11119911 0.0052113882 1.8717151e-038
0.0066790138 0.11119876 0.0049096434 1.8626037e-038
0.0087109078 0.11119832 0.0046077934 1.8718232e-038
0.010612418 0.11186735 0.0035463339 1.816506e-038
0.012508458 0.11253633 0.0024855251 1.8256896e-038
0.014534831 0.11253563 0.0021841335 1.8164703e-038
0.016422717 0.11320441 0.0011243783 1.6412987e-038
0.018587375 0.11253399 0.001581069 1.6873965e-038
0.020757329 0.11186343 0.0020369184 1.6504827e-038
0.02293258 0.11119282 0.0024918292 1.7058001e-038
0.024963938 0.11119168 0.0021891303 1.5859457e-038
0.026843356 0.11186004 0.0011300461 1.908666e-038
0.028871832 0.11185873 0.00082755089 1.8349097e-038
0.031057455 0.11118776 0.0012804489 1.7427495e-038
0.033088416 0.11118631 0.00097739953 1.8257251e-038
0.035281878 0.11051519 0.0014289017 1.844129e-038
0.037315298 0.11051353 0.0011252356 1.8902628e-038
0.039348587 0.11051182 0.00082148006 1.8994822e-038
0.041211102 0.11117959 -0.00023585162 1.8902628e-038
0.042894725 0.1125169 -0.0020456128 1.9363606e-038
0.045271661 0.11117575 -0.00084301201 1.9087375e-038
0.047480457 0.11050412 -0.00039443653 1.8810428e-038
0.049875885 0.10916279 0.00080518983 1.9179212e-038
0.051361423 0.11116939 -0.0017543458 1.9086659e-038
0.053391032 0.11116711 -0.0020583067 1.8902268e-038
0.055420507 0.11116477 -0.0023623111 1.8994462e-038
0.057641942 0.11049274 -0.0019161326 1.9178856e-038
0.059478916 0.11115985 -0.0029705698 1.9086659e-038
0.061705399 0.11048764 -0.0025253526 1.927105e-038
0.063536644 0.11115462 -0.0035791148 1.9086659e-038
0.065970995 0.10981268 -0.0023861849 1.9178856e-038
0.068004787 0.10980986 -0.0026914272 1.9178856e-038
0.070454895 0.10846774 -0.001500959 1.9639833e-038
0.072282724 0.10913441 -0.002554622 1.9455795e-038
0.07431861 0.1091314 -0.002860453 1.9271406e-038
0.076138005 0.10979801 -0.0039130365 1.9271406e-038
0.078389801 0.1091252 -0.0034722914 1.9823502e-038
0.080868393 0.10778271 -0.0022866214 1.9731303e-038
0.083133176 0.10710979 -0.001848042 1.9547637e-038
0.085176095 0.10710646 -0.0021553547 1.9455795e-038
0.0874485 0.10643341 -0.0017180885 1.9547637e-038
0.089493677 0.10642996 -0.0020258911 1.9363246e-038
0.091773689 0.10575673 -0.0015898827 1.9363246e-038
0.094058834 0.10508348 -0.001154758 1.9086659e-038
0.096349113 0.10441017 -0.00072049629 1.9363246e-038
0.098401457 0.10440648 -0.0010296851 1.9086659e-038
0.10069934 0.10373304 -0.00059668813 1.8994462e-038
0.10300235 0.10305955 -0.00016454607 1.8625681e-038
0.1053105 0.10238595 0.0002667848 1.6961832e-038
0.10736994 0.10238204 -4.3718144e-005 1.0035639e-038
0.10994215 0.10103867 0.001126904 9.6538926e-039
0.11200649 0.10103467 0.00081553403 1.1768985e-038
0.11380877 0.10170032 -0.00023567397 1.2687695e-038
0.11613447 0.10102651 0.00019270368 1.3699329e-038
0.11819813 0.10102239 -0.00011874735 1.4255023e-038
0.12053138 0.10034847 0.00030835345 1.5283224e-038
0.1223247 0.101014 -0.00074168481 1.6403254e-038
0.12493809 0.099670224 0.00042241625 1.8713904e-038
0.12728406 0.098996207 0.00084748864 1.7519684e-038
0.1299157 0.097652353 0.0020086728 1.7980665e-038
0.13199133 0.097648017 0.0016951729 1.8072507e-038
0.13463859 0.096304052 0.0028539896 1.779592e-038
0.13700768 0.095629856 0.0032754131 1.7888116e-038
0.1393819 0.094955616 0.0036960114 1.779592e-038
0.1414673 0.09495113 0.0033808909 1.7980313e-038
0.14355244 0.094946623 0.0030657658 1.7611889e-038
0.14533812 0.0956119 0.0020165248 1.7427498e-038
0.14772214 0.094937563 0.0024355538 1.779592e-038
0.15011127 0.094263211 0.0028537977 1.7980313e-038
0.15250556 0.093588807 0.0032712864 1.779592e-038
0.15459497 0.093584217 0.0029554348 1.798031e-038
0.15762214 0.091570169 0.004835939 1.7888116e-038
0.15971917 0.091565549 0.0045189075 1.798031e-038
0.16181599 0.091560945 0.0042019244 1.7703725e-038
0.1658366 0.087537266 0.0082704183 1.7427138e-038
0.0034511921 0.10391609 0.010738918 1.2077979e-038
0.0044096089 0.10995664 0.0036064384 1.871859e-038
0.0063170199 0.11062749 0.0025465107 1.8718232e-038
0.0084737418 0.10995588 0.0030028124 1.8717876e-038
0.010505734 0.10995534 0.0027008322 1.8256896e-038
0.012272186 0.11129716 0.00088475074 1.8810073e-038
0.014163292 0.11196768 -0.00017321517 1.8994465e-038
0.016187042 0.11196689 -0.0004743007 1.8533488e-038
0.018351533 0.11129482 -1.9738916e-005 1.8902269e-038
0.020377815 0.11129387 -0.00032144762 1.8901913e-038
0.022550216 0.11062159 0.00013176538 1.9086304e-038
0.02457905 0.11062045 -0.0001705687 1.9086304e-038
0.026607752 0.11061925 -0.00047297752 1.8902269e-038
0.028636379 0.11061797 -0.00077544176 1.9178856e-038
0.030821837 0.10994536 -0.00032469328 1.9271053e-038
0.032852929 0.1099439 -0.00062778918 1.9178856e-038
0.035046194 0.10927113 -0.00017840299 1.9087021e-038
0.036914784 0.10994072 -0.001234248 1.9087021e-038
0.038945518 0.10993902 -0.0015375973 1.9179216e-038
0.040805791 0.11060844 -0.002592427 1.9271412e-038
0.042660549 0.11127783 -0.0036465649 1.9363606e-038
0.045036975 0.10993341 -0.0024482193 1.9455802e-038
0.047602423 0.10791764 -0.00050142268 1.982458e-038
0.049821611 0.10724428 -5.665049e-005 1.9455795e-038
0.051678475 0.1079133 -0.001111503 1.982458e-038
0.053529788 0.10858233 -0.0021656398 1.9455795e-038
0.055753913 0.10790868 -0.0017218774 1.982458e-038
0.057791378 0.10790627 -0.0020271929 1.9824224e-038
0.060217712 0.10656127 -0.00083707739 1.9732389e-038
0.062260222 0.10655868 -0.0011433456 1.9732026e-038
0.064302526 0.10655604 -0.001449646 1.9547999e-038
0.066344649 0.10655329 -0.0017560478 1.9179216e-038
0.068591863 0.10587925 -0.0013163681 1.9087021e-038
0.071052194 0.10453381 -0.00013177795 1.8902268e-038
0.073101796 0.10453086 -0.00043957401 1.8810428e-038
0.074937902 0.10519915 -0.0014924104 1.8626394e-038
0.076984435 0.10519608 -0.0017999229 1.8165416e-038
0.079468101 0.10385032 -0.00061920285 1.8257612e-038
0.081740938 0.10317584 -0.00018390082 1.8442003e-038
0.084242947 0.10182998 0.00099385809 1.834981e-038
0.086302042 0.10182663 0.00068411417 1.7796635e-038
0.088590339 0.10115189 0.001116896 1.7888116e-038
0.090651698 0.1011484 0.00080666132 1.779592e-038
0.09318231 0.099802263 0.0019797748 1.798031e-038
0.095248587 0.099798657 0.0016686516 1.798031e-038
0.097314633 0.099795014 0.0013574986 1.798031e-038
0.099623211 0.099119976 0.0017867871 1.7888116e-038
0.10169148 0.099116206 0.0014751311 1.798031e-038
0.10400768 0.098441027 0.0019032033 1.779592e-038
0.10632899 0.097765811 0.0023303535 1.7427138e-038
0.10865541 0.097090535 0.0027566645 1.6313938e-038
0.11124315 0.095743872 0.003920665 8.7423718e-039
0.1135825 0.095068462 0.0043449756 1.2228875e-038
0.11540385 0.095735766 0.0032930253 1.314723e-038
0.11748387 0.095731653 0.0029791808 1.4066303e-038
0.11956363 0.095727496 0.0026653353 1.4619119e-038
0.12164319 0.095723294 0.0023514433 1.5267011e-038
0.12399471 0.095047645 0.0027736435 1.7023415e-038
0.12662631 0.09370061 0.0039306246 1.7491595e-038
0.12899072 0.093024902 0.0043507507 1.5934353e-038
0.13108 0.093020551 0.004035214 1.7609e-038
0.13288607 0.093687564 0.0029852353 1.8717508e-038
0.1355435 0.09234032 0.0041382136 1.7888116e-038
0.137923 0.091664441 0.0045558764 1.779592e-038
0.14030764 0.090988576 0.0049727764 1.807179e-038
0.14211015 0.0916555 0.0039232261 1.7795197e-038
0.14420336 0.091650985 0.0036068941 1.7979591e-038
0.14629637 0.09164644 0.0032905564 1.7979591e-038
0.14869078 0.090970457 0.0037058704 1.779592e-038
0.15048167 0.091637336 0.0026579741 1.7979591e-038
0.152881 0.090961307 0.0030724881 1.7978872e-038
0.15528542 0.090285264 0.0034862366 1.7796276e-038
0.15831977 0.088266246 0.0053592119 1.7704078e-038
0.16073978 0.087590151 0.005770579 1.8257251e-038
0.1628473 0.087585516 0.0054519624 1.8257251e-038
0.0035676542 0.1006401 0.011385134 9.6819691e-039
0.0039287587 0.1100597 0.00048831059 1.8626394e-038
0.0058312337 0.11073221 -0.00056871341 1.8902624e-038
0.0079824179 0.11005893 -0.00011377654 1.8994462e-038
0.010138934 0.10938552 0.00034032128 1.8994465e-038
0.012035883 0.11005779 -0.00071626785 1.908666e-038
0.014062541 0.1100571 -0.0010176738 1.9455443e-038
0.01608913 0.11005633 -0.0013192036 1.9363247e-038
0.018256124 0.10938259 -0.00086712191 1.9363247e-038
0.020285267 0.10938162 -0.001169263 1.9547641e-038
0.022606028 0.1080349 3.4212135e-005 1.973203e-038
0.024640357 0.10803378 -0.000268901 1.9547641e-038
0.026825825 0.10735971 0.00017992128 1.9547641e-038
0.02886265 0.10735843 -0.00012379279 1.9824225e-038
0.031056006 0.10668416 0.00032369071 1.973203e-038
0.033095296 0.1066827 1.9381754e-005 1.9547641e-038
0.035134479 0.10668115 -0.00028501265 1.9547641e-038
0.037173543 0.10667952 -0.00058950647 1.9179216e-038
0.039379846 0.10600493 -0.00014445325 1.9179216e-038
0.041421339 0.10600315 -0.00044949702 1.8902628e-038
0.043635417 0.10532841 -5.8365986e-006 1.8533848e-038
0.046030149 0.10398069 0.0011853804 1.8810432e-038
0.048079286 0.10397867 0.00087887654 1.8810432e-038
0.050489843 0.10263076 0.0020675692 1.8256896e-038
0.052544031 0.10262855 0.0017600711 1.8532762e-038
0.05459806 0.10262626 0.0014525042 1.844129e-038
0.0564631 0.10329679 0.00039842352 1.8164703e-038
0.058705643 0.10262147 0.00083713233 1.7796276e-038
0.060953368 0.10194606 0.0012749322 1.7981025e-038
0.063206308 0.10127059 0.001711891 1.7980666e-038
0.065264851 0.10126793 0.0014031497 1.7611529e-038
0.067525469 0.10059227 0.0018387507 1.8164704e-038
0.06979125 0.099916525 0.0022735158 1.761153e-038
0.072269849 0.098567821 0.0034509907 1.7519332e-038
0.074128047 0.099237792 0.0023971843 1.7704078e-038
0.076193675 0.09923476 0.0020869118 1.7980665e-038
0.078259081 0.09923166 0.0017765807 1.7427851e-038
0.080542646 0.098555595 0.0022082073 1.7704438e-038
0.082831368 0.097879425 0.0026389509 1.7704441e-038
0.08512526 0.097203165 0.0030688858 1.7519692e-038
0.087424256 0.096526854 0.0034979032 1.7611889e-038
0.089728415 0.09585049 0.0039261039 1.779592e-038
0.09226948 0.09450113 0.0050934199 1.7888116e-038
0.094586611 0.093824573 0.005519527 1.7888116e-038
0.09667173 0.093820952 0.0052055726 1.7703725e-038
0.098516807 0.09449026 0.004152772 1.7703725e-038
0.10059877 0.094486557 0.0038391771 1.7703725e-038
0.1029257 0.093809761 0.0042635156 1.779592e-038
0.10476204 0.094478942 0.003211827 1.798031e-038
0.1068433 0.094475061 0.0028981101 1.7794474e-038
0.10917757 0.093798101 0.0033211531 1.8160374e-038
0.11177278 0.09244816 0.0044796802 1.28087e-038
0.11411992 0.091771126 0.0049006091 1.2981933e-038
0.11594972 0.092440046 0.003849633 1.2409665e-038
0.11777392 0.093108922 0.002799442 1.4435088e-038
0.1198591 0.093104772 0.0024847789 1.526341e-038
0.12167478 0.093773596 0.0014357734 1.5635073e-038
0.12457262 0.091750309 0.0033232635 1.4257545e-038
0.12721169 0.090399943 0.0044748504 1.3800521e-038
0.12958388 0.089722589 0.0048916303 1.2974359e-038
0.13112132 0.091064297 0.0031094579 1.3443993e-038
0.13349572 0.09038689 0.0035258457 1.2898382e-038
0.13587525 0.089709416 0.0039413972 1.142974e-038
0.13825986 0.089031927 0.0043561803 1.3275448e-038
0.14006826 0.089700505 0.0033079153 1.4105211e-038
0.14216444 0.089696027 0.0029911995 1.604204e-038
0.14455634 0.089018427 0.0034047533 1.6596654e-038
0.14665474 0.089013919 0.0030876584 1.7057632e-038
0.14875285 0.089009352 0.0027705394 1.5491385e-038
0.15115479 0.088331699 0.0031825192 1.5675422e-038
0.1538686 0.086980909 0.0043224525 1.3646394e-038
0.15597406 0.08697629 0.0040041637 1.3276891e-038
0.15870342 0.085625462 0.0051416466 1.0510299e-038
0.16112852 0.084947728 0.0055500893 9.1259212e-039
0.16355874 0.084269919 0.0059577841 7.0018218e-039
0.0044200094 0.10477316 0.0034131238 1.8441646e-038
0.00609096 0.10679629 0.00084790849 1.9547993e-038
0.0081260083 0.10679586 0.00054558762 1.9455443e-038
0.010290387 0.10612086 0.00099629199 1.9271053e-038
0.01232799 0.10612024 0.00069336046 1.9455443e-038
0.014365535 0.10611957 0.00039035548 1.8810435e-038
0.016265521 0.10679328 -0.00066470593 1.8533848e-038
0.018580601 0.10544338 0.00053553667 1.8625682e-038
0.020763472 0.10476794 0.00098292483 1.8625681e-038
0.022951638 0.10409243 0.0014294349 1.844129e-038
0.025145113 0.10341679 0.0018749959 1.8349094e-038
0.027343841 0.1027411 0.0023197029 1.8349094e-038
0.029394232 0.1027398 0.0020139539 1.7703725e-038
0.031444527 0.10273841 0.0017081294 1.7611889e-038
0.033653703 0.10206241 0.0021509698 1.7703725e-038
0.035868127 0.10138638 0.0025928868 1.7888116e-038
0.03792344 0.10138472 0.0022859711 1.7888117e-038
0.040145688 0.10070851 0.0027264873 1.798031e-038
0.042203438 0.10070671 0.0024190121 1.7519332e-038
