# .PCD v0.7 - Point Cloud Data file format
VERSION 0.7
FIELDS x y z rgb
SIZE 4 4 4 4
TYPE F F F F
COUNT 1 1 1 1
WIDTH 968
HEIGHT 1
VIEWPOINT 0 0 0 1 0 0 0
POINTS 968
DATA ascii
0.023182703 0.1096104 0.034331571 1.6044558e-038
0.024771696 0.10806286 0.035995621 1.7243461e-038
0.026523683 0.10806246 0.03639508 8.0235365e-039
0.028128283 0.10651484 0.038062703 1.4569785e-038
0.030027185 0.10806162 0.037193846 1.2357095e-038
0.031573787 0.10574041 0.039499056 1.2357814e-038
0.03339874 0.10651352 0.03926421 1.6137112e-038
0.03540723 0.10960741 0.03711855 1.7981025e-038
0.037213281 0.11038056 0.036879312 1.8626041e-038
0.039013818 0.11115363 0.036638841 1.8810072e-038
0.040698797 0.11037954 0.03767373 1.7334939e-038
0.042546041 0.11192618 0.036793005 1.7611529e-038
0.044233289 0.11115205 0.037828367 1.798031e-038
0.045972697 0.11115149 0.03822476 1.7980313e-038
0.047578625 0.10883011 0.040543325 1.844129e-038
0.049367364 0.10960312 0.040300038 1.8072507e-038
0.051072322 0.10882892 0.041339368 1.6136397e-038
0.052855331 0.10960191 0.041094746 1.6505183e-038
0.054632794 0.11037492 0.040848814 1.5952008e-038
0.056373566 0.11037428 0.041245397 1.4292488e-038
0.058085557 0.10959999 0.042286303 1.5583225e-038
0.059828505 0.10959933 0.042683348 1.2356734e-038
0.061547961 0.10882505 0.043725878 1.6505537e-038
0.063293077 0.10882436 0.044123381 1.6689929e-038
0.065073811 0.1103709 0.043227226 1.8072863e-038
0.066813119 0.11037019 0.043623384 1.8257612e-038
0.068552174 0.11036947 0.044019453 1.798031e-038
0.070290968 0.11036873 0.044415455 1.761153e-038
0.072036862 0.11114159 0.044162206 1.7243108e-038
0.073767781 0.11036725 0.045207236 1.8626042e-038
0.075505778 0.11036647 0.045603015 1.8810073e-038
0.077243537 0.11036569 0.045998722 1.8625681e-038
0.078980997 0.1103649 0.046394356 1.8717876e-038
0.080718182 0.11036411 0.046789899 1.8717876e-038
0.082472131 0.10881604 0.048491012 1.8810073e-038
0.084214069 0.10881523 0.048887625 1.8810432e-038
0.085955717 0.1088144 0.049284149 1.8718235e-038
0.087713517 0.10803995 0.05033521 1.8718232e-038
0.08947634 0.10726549 0.051387385 1.8533841e-038
0.091287605 0.10494375 0.053752344 1.8718232e-038
0.093138799 0.10184838 0.056777239 1.8718232e-038
0.0016251528 0.10232168 0.033143513 9.8667261e-039
0.004056362 0.10697293 0.029806241 1.8349453e-038
0.0060250298 0.1085232 0.028958099 1.7796635e-038
0.0078779683 0.10929828 0.028732155 1.0144398e-038
0.0094185174 0.10774755 0.03038099 1.4477595e-038
0.011468013 0.11007306 0.028902531 1.1434778e-038
0.013016319 0.10852231 0.030553086 1.6966514e-038
0.014763903 0.10852205 0.030951729 1.1895753e-038
0.016603094 0.10929705 0.030722538 9.406471e-039
0.018258734 0.10852148 0.03174888 1.5214798e-038
0.020092379 0.10929646 0.031518385 1.4938207e-038
0.021669339 0.10774563 0.03317539 1.0236232e-038
0.023743337 0.11084626 0.031053705 1.539919e-038
0.025403786 0.11007068 0.032081015 1.254112e-038
0.027220944 0.11084555 0.031846724 1.1526969e-038
0.028666999 0.10774419 0.0347711 1.401697e-038
0.030486505 0.10851904 0.034537319 1.21727e-038
0.031961445 0.10541763 0.037468236 1.2449287e-038
0.033783283 0.10619249 0.037234899 1.5768332e-038
0.035724681 0.10851777 0.035731554 1.8073943e-038
0.037590101 0.11006784 0.034859475 1.8533485e-038
0.039330333 0.11006738 0.035256177 1.8717876e-038
0.041124906 0.11084215 0.035016604 1.7334939e-038
0.042862091 0.11084167 0.035412557 1.7611529e-038
0.044599082 0.11084117 0.03580847 1.7888116e-038
0.046289239 0.11006542 0.036842324 1.6689574e-038
0.048028469 0.11006489 0.03723871 1.5952009e-038
0.049767487 0.11006435 0.037635025 1.5767618e-038
0.051506281 0.1100638 0.038031273 1.7242748e-038
0.053280849 0.1108385 0.037787013 1.6873965e-038
0.055049896 0.11161316 0.037541479 1.7150552e-038
0.056752011 0.11083733 0.038577963 1.761153e-038
0.058431149 0.10928624 0.040257841 1.7150552e-038
0.060171448 0.10928563 0.040654343 1.6413342e-038
0.061888754 0.10850971 0.041694287 1.7243102e-038
0.063631207 0.10850908 0.042091262 1.6782123e-038
0.065373421 0.10850845 0.042488161 1.8533841e-038
0.067115381 0.10850778 0.042884987 1.8534201e-038
0.068869241 0.10928242 0.042635832 1.8717876e-038
0.070608042 0.10928174 0.04303192 1.8533485e-038
0.072367191 0.11160682 0.041486703 1.8072508e-038
0.074093305 0.11083087 0.042528514 1.8441291e-038
0.075826004 0.11083017 0.042923164 1.8717876e-038
0.077559516 0.11005419 0.043966625 1.8810072e-038
0.079290636 0.11082873 0.043712262 1.8625682e-038
0.081022531 0.11082801 0.044106692 1.8810073e-038
0.082763158 0.110052 0.04515174 1.8533488e-038
0.084497154 0.11005126 0.045546629 1.8626042e-038
0.086230859 0.1100505 0.045941442 1.8718235e-038
0.087964304 0.11004974 0.046336181 1.8626041e-038
0.08969748 0.11004896 0.046730839 1.844129e-038
0.091452539 0.10927292 0.047779117 1.8533485e-038
0.093138076 0.11082267 0.046865638 1.8810072e-038
0.094922721 0.10927134 0.048569269 1.8533841e-038
0.09662725 0.11004581 0.048308745 1.8718232e-038
0.098424532 0.10849442 0.050015274 1.8718232e-038
0.10019667 0.10771832 0.051067416 1.8533841e-038
0.10208794 0.10461635 0.054092616 1.8626037e-038
0.10400002 0.10151435 0.057122555 1.8533841e-038
0.10593294 0.098412402 0.060157176 1.8626037e-038
0.0022835664 0.10354889 0.029876504 1.2816989e-038
0.0047039487 0.10821014 0.026550032 1.8257251e-038
0.0064493301 0.10820998 0.026948297 1.6874679e-038
0.0084036868 0.10976356 0.026101336 1.0144398e-038
0.0098380372 0.10743266 0.02836797 1.4569789e-038
0.011883433 0.10976316 0.026895253 1.2633322e-038
0.013430089 0.10820916 0.028540984 1.6874323e-038
0.015268927 0.1089858 0.028314037 1.2448927e-038
0.017102329 0.10976245 0.028085835 9.0376885e-039
0.018753149 0.10898529 0.029108828 1.5952366e-038
0.020495113 0.10898501 0.02950616 1.3555279e-038
0.022153657 0.10820783 0.030530883 1.0605017e-038
0.0239786 0.10898443 0.030300686 1.5860165e-038
0.025720144 0.10898411 0.030697873 9.1298841e-039
0.027386233 0.10820688 0.031724252 1.254112e-038
0.029057473 0.1074296 0.032751847 1.4385034e-038
0.030873874 0.10820618 0.032519579 1.2264894e-038
0.032482762 0.10665197 0.034179367 1.2265616e-038
0.034360867 0.10820542 0.033314683 1.5676137e-038
0.036228165 0.10975881 0.032447584 1.8258335e-038
0.038025305 0.1105353 0.03221089 1.844129e-038
0.039760232 0.11053488 0.032606438 1.8625681e-038
0.041440874 0.10975756 0.033636015 1.6873965e-038
0.043229494 0.11053401 0.033397339 1.7703725e-038
0.044963818 0.11053357 0.033792693 1.7703726e-038
0.046697956 0.1105331 0.034187987 1.779592e-038
0.048388422 0.10975571 0.035219744 1.7519335e-038
0.050124791 0.10975523 0.035615519 1.7888117e-038
0.051822778 0.10897782 0.036648959 1.7888117e-038
0.053632382 0.11053111 0.035768539 1.6412987e-038
0.055365443 0.11053059 0.036163513 1.7242746e-038
0.057158682 0.1120839 0.035279311 1.7703726e-038
0.05883085 0.11052952 0.036953267 1.7242748e-038
0.060588133 0.11130586 0.036707282 1.3186139e-038
0.062250774 0.10897458 0.039025452 1.5398832e-038
0.064007565 0.10975092 0.038779326 1.2909908e-038
0.065724842 0.10897342 0.039817054 1.7243102e-038
0.06747584 0.10974973 0.039569598 1.7704078e-038
0.069186233 0.10819532 0.04125214 1.6781767e-038
0.070934065 0.10897161 0.041003942 1.8349094e-038
0.072682731 0.11052481 0.040109482 1.7519335e-038
0.074416801 0.11130108 0.039858121 1.8441291e-038
0.076143131 0.11052353 0.040897831 1.8901547e-038
0.077872932 0.1105229 0.041291896 1.8717156e-038
0.079602465 0.11052223 0.041685887 1.890119e-038
0.08132486 0.11129848 0.041431807 1.8808994e-038
0.083070159 0.10974398 0.043122221 1.8533485e-038
0.084801503 0.10974329 0.043516602 1.8625681e-038
0.08654733 0.10896569 0.044560675 1.8625681e-038
0.088263363 0.10974191 0.04430512 1.8625681e-038
0.089993872 0.10974121 0.044699263 1.844129e-038
0.091701403 0.11051742 0.044441741 1.8625681e-038
0.093428679 0.1105167 0.044835143 1.8625681e-038
0.095183678 0.10973907 0.045881264 1.8718232e-038
0.096882433 0.11051525 0.045621723 1.8626037e-038
0.098608866 0.11051452 0.046014912 1.8626037e-038
0.10037094 0.10973685 0.047062617 1.8626037e-038
0.10209943 0.1097361 0.047456246 1.8625681e-038
0.1038688 0.10895842 0.048505623 1.8810428e-038
0.10555559 0.10973459 0.048243318 1.8625681e-038
0.10732968 0.1089569 0.049293738 1.8625681e-038
0.10905968 0.10895614 0.049687691 1.8625681e-038
0.11084111 0.10817843 0.050739765 1.8625681e-038
0.11273625 0.1058468 0.053110637 1.8717876e-038
0.11464694 0.10351517 0.055485036 1.8718232e-038
0.11657313 0.10118357 0.057862926 1.8626037e-038
0.11857712 0.098074965 0.060904987 1.8626037e-038
0.00061226578 0.10089342 0.029312219 2.1219302e-039
0.0031630863 0.10634314 0.025384685 1.871823e-038
0.0053486126 0.10945721 0.023306461 1.8165416e-038
0.0070860651 0.10945706 0.023702946 1.4846376e-038
0.0089274561 0.11023543 0.023478881 1.0697573e-038
0.010459338 0.10867817 0.025116874 1.4200647e-038
0.012297898 0.10945652 0.024892144 1.4661625e-038
0.013938935 0.10867778 0.025910778 1.3002102e-038
0.015678572 0.10867757 0.026307667 1.0881598e-038
0.017599618 0.11023442 0.025457477 1.3831861e-038
0.01924563 0.10945565 0.026477214 1.7150907e-038
0.02089683 0.10867685 0.027498091 1.3002102e-038
0.022636013 0.10867658 0.027894808 1.1803203e-038
0.024455175 0.10945486 0.027665541 1.7519692e-038
0.026113939 0.10867602 0.028688112 7.3781741e-039
0.02762823 0.10634004 0.030966176 1.3647833e-038
0.029446963 0.10711832 0.030736722 1.3094659e-038
0.031329736 0.10867509 0.029877674 1.3186499e-038
0.033001158 0.10789621 0.030903066 1.235674e-038
0.034741916 0.10789587 0.031300042 1.5491391e-038
0.036605623 0.10945261 0.0304366 1.8625681e-038
0.038458534 0.11100938 0.029570645 1.8717876e-038
0.040131889 0.11023042 0.030596448 1.844129e-038
0.04191757 0.11100861 0.030359354 1.7242746e-038
0.043595873 0.11022962 0.031386256 1.6228596e-038
0.045327563 0.11022921 0.031781074 1.761153e-038
0.047013413 0.10945024 0.032809634 1.7150552e-038
0.048747346 0.10944981 0.033204928 1.7242748e-038
0.050521396 0.11022792 0.032965142 1.7611174e-038
0.052252259 0.11022747 0.033359706 1.761153e-038
0.054017916 0.11100561 0.033117961 1.7980313e-038
0.055745669 0.11100514 0.033511803 1.7611529e-038
0.05747319 0.11100467 0.033905562 1.7703726e-038
0.059119236 0.10866845 0.036213413 1.7611529e-038
0.060878675 0.10944651 0.035970222 1.7795197e-038
0.062589005 0.10866744 0.037004244 1.7979591e-038
0.064342655 0.10944548 0.036759704 1.7519332e-038
0.06607426 0.10944495 0.03715435 1.7704078e-038
0.067805633 0.10944441 0.037548918 1.7243102e-038
0.069536738 0.10944387 0.037943412 1.6782123e-038
0.071259044 0.10866475 0.038980104 1.7519688e-038
0.073009998 0.11099992 0.037446432 1.7242746e-038
0.07473179 0.11022075 0.038483016 1.8717156e-038
0.07645981 0.11099878 0.038232528 1.7700486e-038
0.078188367 0.10944102 0.039914846 1.5855852e-038
0.079913214 0.11021899 0.039663643 2.0003932e-038
0.08163251 0.110997 0.03941112 1.7975631e-038
0.083356179 0.1109964 0.039803848 1.8990856e-038
0.085092194 0.11021717 0.040843617 1.9361804e-038
0.086833216 0.10943798 0.041884482 1.8532762e-038
0.088561349 0.10943735 0.0422782 1.8809352e-038
0.090289205 0.10943672 0.042671826 1.8901547e-038
0.092016779 0.10943608 0.043065406 1.8533485e-038
0.093744077 0.10943543 0.043458894 1.8533485e-038
0.095471062 0.10943478 0.043852311 1.8717156e-038
0.097135581 0.11099132 0.042943027 1.8626037e-038
0.098856725 0.11099067 0.043335102 1.8809348e-038
0.10057759 0.11099 0.043727092 1.8809352e-038
0.1023372 0.11021069 0.044772148 1.8533485e-038
0.10406012 0.11021001 0.045164604 1.844129e-038
0.10578278 0.11020935 0.045556985 1.8533488e-038
0.10755204 0.10943006 0.046604209 1.8626042e-038
0.10927678 0.10942938 0.046997059 1.844165e-038
0.11094899 0.11020726 0.046733726 1.8533848e-038
0.11272535 0.109428 0.047782537 1.8441651e-038
0.1144492 0.1094273 0.048175164 1.8533485e-038
0.11617281 0.10942658 0.048567735 1.8625681e-038
0.11783334 0.11020447 0.048301738 1.8533485e-038
0.11961912 0.10942516 0.049352676 1.8349094e-038
0.12140988 0.10864585 0.050404746 1.8349454e-038
0.12313499 0.10864514 0.050797645 1.8626041e-038
0.12500641 0.10708724 0.052512281 1.8533845e-038
0.12696397 0.10475069 0.054890811 1.8533845e-038
0.0012752488 0.10213212 0.026061637 1.937183e-039
0.0035916951 0.10603311 0.02338016 1.8810428e-038
0.0058815219 0.10993401 0.020692632 1.7888832e-038
0.0075074518 0.10915364 0.021705717 1.6044919e-038
0.0092421882 0.10915348 0.022101577 1.4569789e-038
0.010976823 0.10915333 0.022497408 1.4661625e-038
0.012613134 0.10837297 0.023512783 1.5030407e-038
0.014350231 0.10837279 0.023909144 1.4846013e-038
0.016087245 0.1083726 0.024305467 1.3002101e-038
0.01782413 0.10837241 0.024701755 1.4846013e-038
0.019560905 0.10837218 0.025097977 1.622895e-038
0.021212606 0.10759176 0.0261168 1.1895757e-038
0.023281012 0.11071237 0.024020601 1.4385042e-038
0.024929779 0.10993192 0.025038734 1.5675781e-038
0.026583727 0.10915142 0.026058057 7.0093916e-039
0.027871152 0.1044699 0.030203778 1.1526975e-038
0.029835425 0.10681026 0.028725779 1.2540768e-038
0.031645551 0.10759018 0.028496649 1.2448934e-038
0.033516604 0.10915031 0.027639391 1.5860172e-038
0.035249408 0.10914999 0.028034588 1.7058715e-038
0.037104193 0.11071013 0.027173577 1.8625681e-038
0.038831357 0.1107098 0.027567467 1.8718235e-038
0.040614083 0.11148968 0.027332023 1.7796277e-038
0.042285103 0.11070912 0.028355086 1.844129e-038
0.04401169 0.11070877 0.028748805 1.8349097e-038
0.045642473 0.10914793 0.030404707 1.7980317e-038
0.047373958 0.10914756 0.030799514 1.7979955e-038
0.049105231 0.10914717 0.031194268 1.8072155e-038
0.050876163 0.10992704 0.030956022 1.7887761e-038
0.052567162 0.10914638 0.031983599 1.7242748e-038
0.054366898 0.11070644 0.031109896 1.8533488e-038
0.056091998 0.11070601 0.031503189 1.8256896e-038
0.057816889 0.11070559 0.031896427 1.779592e-038
0.059488304 0.10914468 0.033561483 1.7334939e-038
0.061241969 0.1099245 0.033319227 1.6873244e-038
0.062968798 0.10992404 0.033712879 1.8348374e-038
0.064732671 0.11148401 0.032830942 1.7334939e-038
0.066437684 0.11070332 0.033861604 1.7703725e-038
0.068147749 0.10992263 0.034893386 1.7243102e-038
0.06988427 0.11070237 0.034647208 1.7519688e-038
0.07160718 0.11070187 0.035039913 1.7704078e-038
0.073329829 0.11070137 0.035432525 1.7519332e-038
0.075052217 0.11070088 0.035825089 1.8807911e-038
0.076774344 0.11070035 0.036217581 1.8068548e-038
0.078498691 0.10991962 0.037252571 1.5301959e-038
0.080217764 0.1106993 0.037002347 1.5207604e-038
0.081931278 0.11147899 0.036750849 1.3918663e-038
0.083660081 0.11069823 0.037786841 1.1521936e-038
0.085393928 0.10991745 0.038823936 1.6592697e-038
0.087132782 0.10913662 0.039862219 1.6316111e-038
0.088858284 0.10913606 0.040255416 1.5762937e-038
0.090583473 0.1091355 0.040648557 1.8621722e-038
0.092308395 0.10913493 0.041041594 1.8255098e-038
0.094006725 0.10991463 0.040786557 1.7517535e-038
0.09572845 0.10991405 0.041178841 1.9178133e-038
0.097418271 0.11069369 0.0409219 1.8163981e-038
0.0991368 0.1106931 0.041313458 1.8439126e-038
0.10081814 0.11147276 0.041054558 1.6319347e-038
0.10253343 0.11147215 0.041445367 1.7242023e-038
0.10429056 0.11069131 0.042487711 1.8902268e-038
0.10600791 0.11069071 0.042878985 1.8626042e-038
0.10777239 0.10990985 0.043922987 1.844165e-038
0.10939172 0.11146972 0.043007933 1.8257979e-038
0.11110559 0.1114691 0.043398391 1.8257979e-038
0.11281919 0.11146848 0.043788794 1.8534567e-038
0.11459043 0.11068762 0.044834327 1.8349455e-038
0.1163061 0.110687 0.045225192 1.8717876e-038
0.11808471 0.10990611 0.046272393 1.8625682e-038
0.11980243 0.10990549 0.046663728 1.8625682e-038
0.1215884 0.10912456 0.047712628 1.8533488e-038
0.12316597 0.11068446 0.046787981 1.8626042e-038
0.12495402 0.10990358 0.047837313 1.8441651e-038
0.12659425 0.1106832 0.047568996 1.8441651e-038
0.12846608 0.10912202 0.04927944 1.8349455e-038
0.13010316 0.10990166 0.049010359 1.8625681e-038
0.13181904 0.10990103 0.04940125 1.844129e-038
0.13353464 0.10990039 0.049792077 1.6966158e-038
0.13542913 0.10833919 0.051507685 1.6597732e-038
0.13733384 0.10677803 0.053225588 1.7058711e-038
0.13934365 0.10443658 0.055609483 1.7796276e-038
0.14146648 0.10131487 0.058661114 1.807322e-038
0.0019353335 0.1033808 0.022823632 9.5883427e-039
0.0042414055 0.10729002 0.020150933 1.8348372e-038
0.0061957161 0.10885368 0.019317336 1.8349453e-038
0.0081393393 0.11041727 0.018481318 1.7796277e-038
0.0097630406 0.10963529 0.019491648 1.7519688e-038
0.011693193 0.11119885 0.018652532 1.7611885e-038
0.013319368 0.11041685 0.019663414 1.7519688e-038
0.015140953 0.11119855 0.019439287 1.7243102e-038
0.016679808 0.10963468 0.021070002 1.6597732e-038
0.018498532 0.11041635 0.020845192 1.5952366e-038
0.020137565 0.1096343 0.021858953 1.6505537e-038
0.021866268 0.10963411 0.022253374 1.5306638e-038
0.023758467 0.11119764 0.021405509 1.5675422e-038
0.025481584 0.11119741 0.021798633 1.5122247e-038
0.027204573 0.1111972 0.022191707 1.373931e-038
0.028705843 0.10885137 0.024453543 1.5306638e-038
0.03043648 0.10885112 0.024848346 1.3001745e-038
0.032098431 0.10806897 0.025867281 1.3186139e-038
0.033897307 0.10885061 0.025637796 1.5952009e-038
0.035690725 0.10963221 0.025407093 1.7519335e-038
0.037478652 0.11041379 0.025175113 1.8810073e-038
0.039261088 0.11119537 0.024941884 1.8625682e-038
0.040982757 0.11119507 0.025334571 1.7519692e-038
0.042704239 0.11119477 0.025727199 1.8441651e-038
0.044375539 0.11041259 0.026748139 1.8626042e-038
0.046004627 0.10884854 0.028399248 1.8256903e-038
0.047733463 0.1088482 0.028793519 1.6689574e-038
0.049462106 0.10884787 0.029187731 1.6966161e-038
0.051269267 0.11041126 0.028320272 1.8164704e-038
0.052992165 0.1104109 0.028713161 1.761153e-038
0.05474893 0.11119242 0.028473966 1.8441291e-038
0.056468714 0.11119206 0.028866122 1.8256896e-038
0.05813076 0.10962793 0.030524665 1.8349094e-038
0.059829269 0.10884568 0.031551719 1.8349094e-038
0.06157979 0.10962716 0.031311065 1.8349453e-038
0.063324779 0.11040863 0.03106916 1.6874323e-038
0.065064214 0.1111901 0.030825963 1.7334939e-038
0.066782594 0.11118969 0.031217718 1.7150551e-038
0.068487838 0.11040739 0.032246269 1.6966158e-038
0.070218585 0.11118884 0.032001074 1.7150551e-038
0.071943767 0.11197034 0.031754553 1.7704078e-038
0.073663414 0.11275176 0.031506795 1.7888116e-038
0.075370625 0.11118753 0.033175576 1.8716796e-038
0.077087805 0.1104052 0.0342068 1.9081626e-038
0.078809999 0.10962287 0.035239145 1.8988347e-038
0.080525912 0.11040428 0.034990519 1.9908504e-038
0.082236305 0.11118569 0.034740612 1.677493e-038
0.083952032 0.11118522 0.035131693 1.299635e-038
0.085667491 0.11118475 0.035522707 1.6037365e-038
0.087398879 0.11040238 0.036557123 1.7881277e-038
0.089135282 0.10962 0.037592687 1.1520499e-038
0.090855189 0.10961951 0.037984695 1.124427e-038
0.092574812 0.109619 0.038376629 1.8066746e-038
0.094267368 0.11040038 0.038122598 1.5945168e-038
0.096042633 0.10883609 0.039806776 1.09684e-038
0.097699925 0.11039935 0.03890492 1.7051869e-038
0.099450454 0.10961694 0.039943658 1.7885955e-038
0.10109398 0.1111802 0.039038658 1.8716436e-038
0.10284659 0.11039779 0.040077854 1.6588019e-038
0.10456158 0.11039725 0.0404687 1.8252218e-038
0.10632154 0.10961483 0.041509565 1.8810435e-038
0.1079907 0.11039618 0.041250166 1.8625681e-038
0.10965429 0.11117754 0.040989492 1.8257979e-038
0.11131236 0.11195894 0.040727526 1.844237e-038
0.11302064 0.11195839 0.041116823 1.8533845e-038
0.11478709 0.1111759 0.042159181 1.844165e-038
0.11649746 0.11117537 0.04254894 1.8349455e-038
0.11827127 0.11039291 0.043592937 1.8349455e-038
0.11991738 0.11117426 0.043328259 1.8349455e-038
0.12169588 0.1103918 0.044373311 1.8533488e-038
0.12326457 0.11195508 0.043451179 1.8349455e-038
0.12497094 0.11195453 0.043840013 1.8441651e-038
0.12667704 0.11195396 0.044228788 1.8349454e-038
0.12846239 0.11117146 0.045275435 1.8533845e-038
0.13033484 0.10960709 0.046981677 1.8533485e-038
0.13196328 0.11038844 0.046712968 1.844129e-038
0.13367364 0.11038787 0.047102708 1.5122247e-038
0.13529366 0.11116921 0.046832085 1.5030053e-038
0.13700086 0.11116865 0.047221102 1.5122607e-038
0.13861249 0.11195003 0.046948519 1.6782128e-038
0.14041449 0.11116752 0.047998961 1.5492466e-038
0.14232209 0.10960314 0.049713194 1.6598811e-038
0.14413677 0.10882067 0.050766494 1.6598811e-038
0.14585066 0.10882011 0.051157035 1.7335652e-038
0.14756435 0.10881955 0.051547542 1.7059067e-038
0.14972211 0.1056913 0.054598399 1.7150907e-038
0.0027057244 0.10542288 0.01898649 1.4934969e-038
0.0047776815 0.10777339 0.017546635 1.8532045e-038
0.0067257094 0.10934032 0.016716106 1.8256896e-038
0.0085578021 0.11012373 0.016496662 1.8349453e-038
0.010384521 0.11090718 0.016275954 1.8533841e-038
0.012105877 0.11090706 0.016668797 1.8626037e-038
0.013729908 0.11012337 0.017677022 1.8533841e-038
0.015548362 0.1109068 0.017454393 1.8626037e-038
0.017177487 0.11012311 0.018463757 1.8533841e-038
0.019079719 0.11169001 0.017622666 1.8257251e-038
0.020797916 0.11168985 0.018014735 1.8349094e-038
0.022432007 0.11090617 0.019025169 1.8072507e-038
0.024233971 0.11168952 0.018798742 1.7058355e-038
0.025951784 0.11168932 0.019190712 1.6873965e-038
0.027745482 0.11247266 0.018962383 1.5952008e-038
0.029240238 0.11012186 0.021216165 1.6873965e-038
0.031033667 0.11090522 0.020987725 1.6044203e-038
0.032685466 0.11012143 0.022002166 1.4660188e-038
0.034407835 0.11012121 0.022395115 1.5398832e-038
0.036192805 0.11090453 0.022164706 1.7888117e-038
0.037972298 0.11168781 0.021933077 1.7150552e-038
0.039688841 0.11168757 0.022324657 1.8717876e-038
0.041295603 0.11012023 0.023966348 1.7243107e-038
0.042964932 0.10933645 0.024984708 1.8441651e-038
0.044738367 0.11011972 0.024751669 1.8533848e-038
0.04641261 0.1093359 0.025771108 1.825726e-038
0.048180338 0.11011914 0.025536751 1.7058355e-038
0.049859468 0.10933533 0.0265573 1.761153e-038
0.051621482 0.11011856 0.026321605 1.7980313e-038
0.053341739 0.11011826 0.026713947 1.7058355e-038
0.055095349 0.11090151 0.026476299 1.8533488e-038
0.056812502 0.11090119 0.026867904 1.5952008e-038
0.058501128 0.1101173 0.027890619 1.2356378e-038
0.060194828 0.10933344 0.028914422 1.7704078e-038
0.06196256 0.1109002 0.028042408 1.7519688e-038
0.063678771 0.11089987 0.028433772 1.6597732e-038
0.065394737 0.11089952 0.028825091 1.8256896e-038
0.067095399 0.11011558 0.029850477 1.8349094e-038
0.068813525 0.11011522 0.030242261 1.8256896e-038
0.070531368 0.11011487 0.030633962 1.7888116e-038
0.072256073 0.11089806 0.030389646 1.798031e-038
0.073975235 0.1116812 0.030144067 1.779592e-038
0.075685211 0.1108973 0.031171538 1.9453644e-038
0.077401049 0.10932979 0.032837916 7.0918748e-039
0.079120219 0.1093294 0.033229891 1.1703814e-038
0.080826916 0.11089613 0.03234385 1.2164792e-038
0.082540259 0.11089572 0.032734476 1.7419579e-038
0.084253341 0.11089531 0.03312505 2.0554951e-038
0.085966147 0.11089489 0.03351555 1.3455884e-038
0.087678678 0.11089447 0.033905972 1.8159308e-038
0.089390919 0.11089404 0.034296315 2.0280167e-038
0.091102891 0.11089362 0.034686618 1.9080541e-038
0.092814587 0.11089319 0.035076845 1.7419579e-038
0.094498724 0.11167628 0.034823202 1.9634072e-038
0.096296906 0.10932519 0.037145857 1.5393072e-038
0.098013029 0.10932475 0.037537072 1.5301598e-038
0.099728853 0.1093243 0.03792822 1.7700486e-038
0.10136874 0.11089097 0.037026882 1.8162185e-038
0.10311919 0.11010695 0.0380635 1.3914346e-038
0.10483152 0.11010648 0.038453825 1.7975631e-038
0.10654357 0.11010602 0.03884409 1.8165064e-038
0.10820695 0.11088915 0.038585663 1.8256896e-038
0.10981379 0.11245579 0.037676804 1.8165783e-038
0.11157069 0.11167175 0.038714852 1.8073587e-038
0.11327635 0.11167128 0.039103623 1.8442006e-038
0.11504062 0.11088727 0.040143345 1.8533845e-038
0.11674836 0.1108868 0.040532604 1.8165063e-038
0.11851997 0.11010274 0.041574009 1.8349455e-038
0.12022977 0.11010226 0.041963737 1.8625682e-038
0.1219393 0.11010177 0.04235341 1.8533129e-038
0.12350435 0.11166845 0.04143497 1.8441651e-038
0.12528281 0.11088441 0.042477913 1.8349455e-038
0.12698887 0.11088393 0.042866759 1.8626041e-038
0.12877469 0.11009984 0.043911424 1.8626041e-038
0.13048287 0.11009936 0.044300765 1.844129e-038
0.13219078 0.11009888 0.044690058 1.8349094e-038
0.13389848 0.11009839 0.045079291 1.7980313e-038
0.13560587 0.11009791 0.04546845 1.6597376e-038
0.13731305 0.11009742 0.045857549 1.7888116e-038
0.1389242 0.11088053 0.045587186 1.7150911e-038
0.14062823 0.11088004 0.045975592 1.4108811e-038
0.14253417 0.10931242 0.047685165 1.6505896e-038
0.1441393 0.11009549 0.047413465 1.4938572e-038
0.14573899 0.1108786 0.04714049 1.8257612e-038
0.14722432 0.11244524 0.0462039 1.7981025e-038
0.14925663 0.11009403 0.04857986 1.8072507e-038
0.150962 0.11009355 0.048968587 1.7242746e-038
0.15278395 0.10930951 0.050021417 1.6873965e-038
0.15437208 0.1100926 0.04974585 1.8072508e-038
0.15632096 0.108525 0.051465213 1.8994465e-038
0.15902826 0.10225593 0.057182901 1.8717876e-038
0.00070403452 0.10041165 0.020252641 1.6591556e-039
0.0035849805 0.10826338 0.014556585 1.8900823e-038
0.0055321348 0.10983369 0.013730269 1.8533118e-038
0.0072537591 0.10983362 0.014123215 1.7980665e-038
0.0090800542 0.1106187 0.01390471 1.8349448e-038
0.010798858 0.1106186 0.01429701 1.8349453e-038
0.012617051 0.11140368 0.014076617 1.816506e-038
0.014042648 0.10904801 0.016308073 1.3093943e-038
0.015766488 0.10904789 0.016701499 1.3647118e-038
0.017673219 0.11061816 0.015865883 1.4661269e-038
0.019657994 0.11297356 0.014412777 1.82569e-038
0.021368248 0.11297341 0.014803068 1.8625682e-038
0.022994835 0.11218812 0.01580961 1.8533488e-038
0.024707479 0.11218796 0.016200421 1.8349097e-038
0.026341787 0.11140265 0.017208712 1.8625681e-038
0.028132366 0.11218764 0.016981943 1.8533485e-038
0.029771706 0.11140231 0.017991355 1.8349094e-038
0.031556677 0.1121873 0.017763289 1.844129e-038
0.033201009 0.11140195 0.018773818 1.8441291e-038
0.034850497 0.11061658 0.019785522 1.8625682e-038
0.036629666 0.11140157 0.019556107 1.7427139e-038
0.03834375 0.11140137 0.019947173 1.8164704e-038
0.040057633 0.11140116 0.020338198 1.8349094e-038
0.041608389 0.10904537 0.022598078 1.7427498e-038
0.043329868 0.10904516 0.022990812 1.8349454e-038
0.045100179 0.10983016 0.0227593 1.8349454e-038
0.046864972 0.11061508 0.022526557 1.7703726e-038
0.048536841 0.10982968 0.023543304 1.6412987e-038
0.050295927 0.11061461 0.023309229 1.7058355e-038
0.051972672 0.10982918 0.024327073 1.7888117e-038
0.053761773 0.11139929 0.023464501 1.7980313e-038
0.055440731 0.11061385 0.024482831 1.8349097e-038
0.057155233 0.11061357 0.024873899 1.779592e-038
0.058841687 0.10982813 0.025893923 1.7888116e-038
0.060558382 0.10982785 0.026285492 1.7980666e-038
0.062297344 0.11061274 0.026046773 1.816506e-038
0.063991025 0.10982728 0.027068434 1.6412986e-038
0.065724194 0.11061216 0.026828397 1.7058355e-038
0.06745182 0.11139705 0.026587063 1.6781767e-038
0.069161996 0.11139675 0.026977111 1.7519332e-038
0.070862614 0.11061125 0.028000323 1.6597376e-038
0.072574914 0.11061094 0.028390842 1.7242746e-038
0.074294925 0.11218099 0.027512414 1.8808277e-038
0.075998753 0.1106103 0.029171677 1.9266733e-038
0.077710256 0.11060997 0.029562006 1.5392719e-038
0.079425469 0.10982446 0.030588502 2.1754214e-038
0.08112587 0.1113945 0.029705573 2.2582534e-038
0.082843177 0.11060897 0.030732548 1.0202394e-038
0.084553584 0.11060862 0.031122589 1.9423761e-038
0.086263739 0.11060827 0.031512566 2.0649306e-038
0.087939255 0.1121783 0.030623967 1.9172737e-038
0.089663386 0.11139276 0.031652469 1.2793596e-038
0.091370068 0.11139242 0.032041632 9.3917195e-039
0.093076453 0.11139204 0.032430742 1.4652267e-038
0.094754823 0.11217687 0.032178093 1.926277e-038
0.096549138 0.10982093 0.034493282 2.0280522e-038
0.098226942 0.11060574 0.034240503 1.8808274e-038
0.099934846 0.11060536 0.034629952 1.8807557e-038
0.10156585 0.11217538 0.033731125 1.917346e-038
0.10330883 0.11138982 0.034763895 2.0003217e-038
0.10505681 0.11060422 0.035797797 2.0188692e-038
0.10671736 0.11138906 0.035541076 1.8533129e-038
0.10837233 0.11217386 0.03528307 1.8533129e-038
0.11007324 0.11217346 0.035670891 1.8533848e-038
0.11182801 0.11138788 0.036706325 1.8257256e-038
0.11358776 0.11060227 0.037742905 1.8533845e-038
0.11529308 0.11060188 0.038131714 1.8349454e-038
0.11693611 0.11138668 0.037870962 1.8533845e-038
0.11870296 0.11060108 0.038909141 1.8626041e-038
0.12047473 0.10981549 0.039948449 1.8533488e-038
0.12225154 0.10902983 0.040988937 1.8626042e-038
0.12381563 0.11059988 0.040074803 1.8626042e-038
0.12551935 0.11059947 0.04046325 1.8349455e-038
0.12722275 0.11059906 0.040851597 1.8349455e-038
0.12900637 0.10981346 0.041893601 1.8349454e-038
0.13071191 0.10981305 0.042282451 1.8533485e-038
0.13241722 0.10981264 0.042671248 1.8625681e-038
0.13412221 0.10981224 0.043059967 1.7242748e-038
0.13573599 0.11059703 0.042792525 1.6873965e-038
0.13734424 0.11138183 0.042523857 1.6966158e-038
0.13913952 0.11059621 0.043568499 1.7242746e-038
0.14093982 0.10981061 0.0446143 1.7520048e-038
0.14284663 0.10823974 0.046319775 1.7335657e-038
0.14424303 0.110595 0.044732049 1.6690289e-038
0.14573018 0.11216501 0.043800399 1.8257612e-038
0.14731599 0.11294981 0.043526635 1.6966514e-038
0.14934447 0.11059378 0.045895152 1.6781767e-038
0.15115921 0.10980817 0.046944242 1.650518e-038
0.15286173 0.10980777 0.047332402 1.7519332e-038
0.15456401 0.10980738 0.047720514 1.8533485e-038
0.15626611 0.10980697 0.048108604 1.8717876e-038
0.15884417 0.10431001 0.053143892 1.8717876e-038
0.0013667373 0.10167845 0.017039519 1.9357397e-039
0.0038981643 0.10718624 0.01318534 1.8716788e-038
0.0058443481 0.10875988 0.012363265 1.8165056e-038
0.0076729027 0.10954664 0.012147518 1.8349448e-038
0.0093918061 0.10954657 0.012539867 1.8349448e-038
0.011212241 0.11033333 0.012322238 1.8257251e-038
0.012829354 0.10954642 0.013324478 1.8626037e-038
0.014355364 0.10797263 0.014939101 1.3738232e-038
0.01589191 0.10639887 0.016556079 1.4291409e-038
0.017893976 0.10875931 0.015113573 1.5213365e-038
0.019791616 0.11033287 0.014280384 1.8164704e-038
0.021678556 0.11190641 0.013444762 1.8164704e-038
0.023305636 0.11111947 0.014449229 1.8625682e-038
0.025018299 0.11111935 0.014840074 1.8717876e-038
0.026653083 0.1103324 0.015846305 1.8625682e-038
0.028443187 0.1111191 0.015621677 1.82569e-038
0.030155404 0.11111895 0.016012417 1.6505183e-038
0.031937256 0.11190564 0.015785905 1.530664e-038
0.033579402 0.11111866 0.016793761 1.8072508e-038
0.035291169 0.11111853 0.017184369 1.8441291e-038
0.037002746 0.11111836 0.017574921 1.8441291e-038
0.038714174 0.1111182 0.017965458 1.82569e-038
0.040425409 0.11111803 0.018355915 1.798031e-038
0.041974962 0.10875736 0.020608891 1.7703725e-038
0.043693781 0.10875718 0.021001082 1.8533845e-038
0.045509476 0.11033067 0.020149095 1.8349455e-038
0.04726848 0.11111731 0.019917296 1.7888476e-038
0.04897875 0.11111711 0.020307511 1.7242748e-038
0.050688818 0.11111692 0.020697668 1.7150552e-038
0.052360754 0.11032989 0.021712275 1.7427139e-038
0.054108303 0.11111651 0.021477824 1.7888117e-038
0.055817708 0.1111163 0.021867827 1.8072507e-038
0.057526905 0.11111609 0.022257753 1.1711009e-038
0.059235867 0.11111587 0.022647658 1.6873965e-038
0.060944594 0.11111564 0.023037465 1.8533841e-038
0.062675118 0.11190224 0.022799127 1.8441646e-038
0.064341962 0.11032835 0.024445623 1.8625681e-038
0.066069342 0.11111494 0.024206569 1.8164703e-038
0.067763023 0.11032787 0.025226044 1.844129e-038
0.069473177 0.11032762 0.025616165 1.8072508e-038
0.071156703 0.10796683 0.027899642 1.7703726e-038
0.072880439 0.10875344 0.027659668 1.761153e-038
0.074598603 0.10954002 0.027418481 1.7980313e-038
0.076312065 0.11111343 0.02654306 1.9912461e-038
0.078018263 0.11111318 0.026932254 1.9909579e-038
0.079724215 0.11111291 0.027321378 2.0911852e-038
0.081436977 0.11032581 0.028345188 1.8876707e-038
0.083154738 0.10953868 0.029370131 1.1945828e-038
0.08486516 0.1095384 0.029760264 1.4712423e-038
0.086560287 0.11032497 0.029513778 2.1108843e-038
0.08826749 0.1103247 0.029903172 8.364607e-039
0.089994743 0.10953755 0.030930256 9.1864475e-039
0.091681086 0.1103241 0.03068175 1.8426175e-038
0.093387462 0.11032381 0.031070948 2.0275844e-038
0.095093563 0.11032353 0.031460073 8.8255851e-039
0.096830226 0.10953636 0.032489285 2.1100203e-038
0.098538406 0.10953606 0.032878865 1.917526e-038
0.10021012 0.11032261 0.032627016 1.705224e-038
0.1018763 0.11110914 0.032373887 1.557099e-038
0.1035369 0.11189568 0.032119494 1.5021416e-038
0.10528006 0.11110853 0.033150174 1.8525571e-038
0.10698152 0.11110822 0.033538215 1.9635154e-038
0.10868269 0.11110792 0.033926196 1.8808277e-038
0.11038361 0.1111076 0.034314111 1.8716796e-038
0.11213884 0.11032042 0.035347544 1.8624603e-038
0.11389903 0.10953325 0.036382105 1.8533488e-038
0.11554447 0.11031979 0.036124222 1.8349097e-038
0.11718438 0.11110631 0.035865083 1.844129e-038
0.11894901 0.11031915 0.036900651 1.8257256e-038
0.12071865 0.10953196 0.037937354 1.8257979e-038
0.12249327 0.10874479 0.038975209 1.8441291e-038
0.12419985 0.10874445 0.039364398 1.8533848e-038
0.1258305 0.10953099 0.039103128 1.844129e-038
0.1276122 0.1087438 0.040142599 1.844129e-038
0.129318 0.10874347 0.040531598 1.844129e-038
0.13093989 0.10952998 0.040268347 1.8533488e-038
0.13255629 0.11031652 0.040003821 1.889975e-038
0.13416719 0.11110304 0.039738055 1.8804674e-038
0.13586402 0.11110272 0.040125016 1.9355686e-038
0.13746652 0.11188924 0.039857332 1.8716079e-038
0.13935375 0.1103152 0.041553978 1.8164703e-038
0.14105248 0.11031488 0.041941386 1.8440567e-038
0.14275099 0.11031454 0.042328723 1.8348374e-038
0.14434467 0.11110108 0.04205903 1.7888472e-038
0.14604008 0.11110074 0.042445671 1.7796276e-038
0.14762543 0.11188727 0.042174079 1.7518607e-038
0.14954281 0.11031323 0.043877628 1.7610086e-038
0.15124023 0.1103129 0.044264726 1.7610809e-038
0.15305522 0.10952571 0.04531176 1.8072507e-038
0.15463445 0.11031226 0.045038775 1.8717876e-038
0.15645429 0.10952506 0.046086948 1.8626037e-038
0.15890741 0.10480348 0.050445262 1.871823e-038
0.0022553862 0.10453214 0.012629434 1.1525883e-038
0.0045466218 0.10847457 0.0099978289 1.7888469e-038
0.0062656477 0.10847453 0.010390243 1.8165056e-038
0.0079846177 0.10847449 0.010782634 1.8072863e-038
0.0095997369 0.10768595 0.011782227 1.8349453e-038
0.011523493 0.10926286 0.010959515 1.8349453e-038
0.013239559 0.1092628 0.011351218 1.7427495e-038
0.014955552 0.10926273 0.011742911 1.3739311e-038
0.01667143 0.10926268 0.012134572 1.484566e-038
0.018477747 0.11005107 0.01191595 1.2356378e-038
0.020278599 0.11083947 0.011696081 1.8717876e-038
0.021988856 0.11083939 0.01208643 1.844129e-038
0.023781531 0.11162784 0.011864635 1.8533845e-038
0.025488868 0.11162775 0.012254317 1.8349455e-038
0.027196046 0.11162765 0.012643949 1.8349097e-038
0.028828546 0.11083901 0.013647505 1.8256544e-038
0.030466178 0.11005042 0.014652169 1.659702e-038
0.03217826 0.11005031 0.015042906 1.1434067e-038
0.033890169 0.1100502 0.015433602 1.1342225e-038
0.035665885 0.11083857 0.015207939 1.7519335e-038
0.037374828 0.11083845 0.015597946 1.8533848e-038
0.039083574 0.11083832 0.015987918 1.844165e-038
0.040792175 0.11083819 0.016377823 1.8164703e-038
0.042447202 0.11004958 0.017386423 1.8349094e-038
0.044158071 0.11004945 0.017776843 1.8533845e-038
0.045916781 0.11083778 0.017547272 1.8625682e-038
0.047715399 0.11241467 0.016695857 1.7334941e-038
0.04937496 0.11162604 0.01770548 1.761153e-038
0.05107972 0.11162589 0.018094486 1.7334941e-038
0.052746821 0.11083719 0.019105859 1.779592e-038
0.054488599 0.11162558 0.018872345 1.8533488e-038
0.056160551 0.11083687 0.019884817 1.8072507e-038
0.057867084 0.1108367 0.020274211 1.7519332e-038
0.059546553 0.11004806 0.021288333 1.7888116e-038
0.061279453 0.11083636 0.021052843 1.8626037e-038
0.063006841 0.11162474 0.020816032 1.8441646e-038
0.064690888 0.11083601 0.021831235 1.844129e-038
0.066412479 0.11162438 0.02159309 1.8625681e-038
0.068114921 0.11162419 0.021981526 1.8441291e-038
0.069817118 0.11162401 0.022369908 1.5122608e-038
0.07149417 0.10925829 0.024645314 1.4753466e-038
0.073203802 0.1092581 0.025035389 1.7335304e-038
0.074919187 0.11083488 0.024164939 1.8531685e-038
0.07662338 0.11162324 0.023922792 8.5695188e-039
0.078322001 0.11241151 0.023679422 1.0931678e-038
0.080024913 0.11162283 0.024698855 1.1667082e-038
0.081732854 0.11083407 0.025719481 1.1483414e-038
0.083456002 0.10925689 0.027374435 1.1670685e-038
0.085150912 0.11004515 0.027130187 2.1362389e-038
0.086824745 0.11162198 0.026250198 1.9909579e-038
0.088524029 0.11162176 0.026637871 8.9141808e-039
0.090243801 0.11083299 0.027661169 8.4564467e-039
0.091968596 0.11004429 0.028685566 1.8058832e-038
0.093698367 0.10925556 0.029711101 2.1197802e-038
0.095375739 0.11004383 0.029462855 1.1032881e-038
0.097110227 0.10925511 0.030489461 1.2039113e-038
0.098713785 0.11162041 0.028962485 2.1108843e-038
0.10041109 0.11162018 0.029349688 1.170417e-038
0.10210811 0.11161995 0.029736826 2.018329e-038
0.10380484 0.11161971 0.030123893 2.1383634e-038
0.10554581 0.11083093 0.031152003 1.61166e-038
0.10724464 0.11083068 0.031539548 1.1871638e-038
0.10889333 0.111619 0.031284697 1.8807554e-038
0.11058893 0.11161875 0.031671494 1.9729507e-038
0.11228428 0.11161851 0.03205822 9.6769412e-039
0.11403703 0.11082973 0.033089016 1.2993469e-038
0.11573441 0.11082947 0.033476226 1.3088545e-038
0.11743154 0.11082922 0.033863366 1.8346933e-038
0.11912838 0.11082897 0.034250442 1.8624603e-038
0.12082495 0.11082873 0.034637444 1.8441651e-038
0.12259214 0.11003998 0.035671476 1.8625682e-038
0.12436433 0.10925123 0.036706656 1.8441291e-038
0.12606534 0.10925099 0.037094686 1.8716796e-038
0.12776609 0.10925073 0.037482634 1.8532406e-038
0.12946656 0.10925049 0.037870534 1.8533485e-038
0.13108274 0.11003873 0.037608281 1.8717876e-038
0.13269337 0.11082697 0.037344787 1.9911741e-038
0.1342985 0.11161529 0.037079964 6.3391828e-039
0.13599007 0.11161502 0.037465837 9.8508956e-039
0.13768138 0.11161477 0.037851632 1.945148e-038
0.13956688 0.11003746 0.039543618 1.8624958e-038
0.14136285 0.10924871 0.040584207 2.0373794e-038
0.14295886 0.11003695 0.040317357 2.0003932e-038
0.14454937 0.1108252 0.040049262 1.8531322e-038
0.14624214 0.11082496 0.040435407 1.9178132e-038
0.14793472 0.1108247 0.040821504 1.9361803e-038
0.14985305 0.10924745 0.042520925 2.0007172e-038
0.15143481 0.1100357 0.042250827 1.89923e-038
0.15301113 0.11082396 0.041979507 1.8348374e-038
0.15458198 0.11161228 0.041706875 1.8533485e-038
0.15639444 0.11082346 0.042751282 1.8810428e-038
0.15909478 0.10451509 0.048414644 1.871823e-038
0.0027973775 0.10503193 0.010048528 1.5030039e-038
0.0048583196 0.10740237 0.0086328704 1.7611882e-038
0.0065773427 0.10740234 0.0090252999 1.7611882e-038
0.0084022935 0.10819246 0.0088132052 1.7150907e-038
0.010118528 0.10819242 0.0092049846 1.7980666e-038
0.011935355 0.10898253 0.0089910366 1.7796276e-038
0.013746778 0.10977262 0.0087758312 1.8256896e-038
0.015457449 0.10977256 0.0091663245 1.8071429e-038
0.017168043 0.10977253 0.0095568169 1.7149472e-038
0.018878495 0.10977246 0.0099472627 1.6966158e-038
0.020588864 0.1097724 0.010337682 1.8533485e-038
0.02221439 0.10898221 0.011337432 1.8349094e-038
0.0240913 0.1105625 0.010508423 1.8165063e-038
0.02579863 0.11056242 0.010898135 1.8349454e-038
0.027505815 0.11056235 0.011287812 1.8625682e-038
0.02921287 0.11056228 0.011677453 1.8164704e-038
0.030919796 0.11056221 0.012067074 1.1618814e-038
0.032695338 0.11135227 0.011843628 7.8387935e-039
0.034333158 0.11056206 0.012846164 1.3647118e-038
0.036103096 0.11135212 0.01262144 1.7150912e-038
0.037745871 0.1105619 0.013625103 1.8533848e-038
0.039451972 0.11056181 0.014014511 1.8257256e-038
0.041157905 0.11056172 0.014403876 1.7519695e-038
0.04291651 0.11135177 0.01417656 1.8349094e-038
0.044518966 0.10977133 0.015799731 1.8533485e-038
0.046226975 0.10977123 0.016189557 1.798031e-038
0.047979709 0.11056133 0.01596085 1.5398832e-038
0.049726918 0.11135139 0.015730921 1.6505183e-038
0.0513894 0.11056113 0.016739039 1.678177e-038
0.053093936 0.11056102 0.017128067 1.622824e-038
0.054832559 0.11135105 0.016896149 1.751898e-038
0.056565661 0.11214108 0.016662983 1.6966521e-038
0.058235228 0.11135082 0.017672714 1.2171988e-038
0.059909865 0.11056057 0.018683596 1.7703725e-038
0.061589547 0.10977025 0.019695681 1.7427495e-038
0.063316457 0.11056034 0.019461028 1.7796276e-038
0.065019377 0.11056022 0.019849662 1.8072507e-038
0.066737831 0.11135022 0.019613128 1.8256896e-038
0.068450741 0.11214023 0.019375348 1.82569e-038
0.070137158 0.11134996 0.020388888 1.7242748e-038
0.071812972 0.10897934 0.022657445 1.632079e-038
0.073509589 0.10739891 0.024302034 1.7150196e-038
0.07522919 0.10976923 0.022808356 1.8715357e-038
0.076932773 0.11134942 0.021939665 7.2679774e-039
0.078628272 0.11213942 0.02169789 1.2318934e-038
0.080334395 0.11055899 0.023344623 2.349585e-038
0.082034759 0.11055885 0.023732651 2.0646425e-038
0.083734855 0.11055871 0.024120606 2.1383634e-038
0.085434638 0.11055856 0.024508478 1.8341179e-038
0.087102234 0.1121387 0.02363161 1.9911385e-038
0.088814817 0.11134841 0.024651106 2.0280888e-038
0.090532415 0.11055811 0.025671741 1.9820984e-038
0.092255011 0.10976775 0.026693555 1.8161463e-038
0.093956076 0.10976759 0.027081719 1.9443916e-038
0.095627666 0.11055765 0.026834415 1.2318934e-038
0.097325519 0.11055748 0.027221842 1.2311737e-038
0.099023081 0.11055733 0.027609201 2.1472941e-038
0.10072039 0.11055716 0.027996499 2.0738976e-038
0.10249687 0.10897664 0.029659294 2.1098764e-038
0.10415647 0.10976662 0.029409282 1.7314064e-038
0.10594559 0.10818617 0.031074911 1.5916727e-038
0.10755432 0.10976629 0.030184602 1.1666366e-038
0.10920253 0.11055633 0.02993194 2.0275842e-038
0.11079223 0.11213646 0.029037273 1.6223554e-038
0.11259342 0.110556 0.030705679 9.4893129e-039
0.11434664 0.10976562 0.031734467 2.1476185e-038
0.11604401 0.10976546 0.032121759 2.2304504e-038
0.11767764 0.11055549 0.031865772 9.2851185e-039
0.11937182 0.11055531 0.032252338 1.9698547e-038
0.12106573 0.11055514 0.03263884 1.8991224e-038
0.12275935 0.11055497 0.033025283 1.8716079e-038
0.12445273 0.1105548 0.033411667 2.0908972e-038
0.12622248 0.10976442 0.034444213 1.6111201e-038
0.12791792 0.10976424 0.034831077 1.3911103e-038
0.12961313 0.10976406 0.035217881 1.6777085e-038
0.13113898 0.11134426 0.034308579 2.0280522e-038
0.13282838 0.11134407 0.03469405 2.0924454e-038
0.13451757 0.11134391 0.035079468 7.5434839e-039
0.13629891 0.11055358 0.036114629 1.5569903e-038
0.13808526 0.10976319 0.037150979 2.1110276e-038
0.13977896 0.10976301 0.037537411 1.6775639e-038
0.14147243 0.10976284 0.037923813 1.0385683e-038
0.14306267 0.11055287 0.037657931 9.3798225e-039
0.14475302 0.11055271 0.038043614 1.7054028e-038
0.14655134 0.10976231 0.039082676 1.6870357e-038
0.14835474 0.10897198 0.040122867 1.4912289e-038
0.15004969 0.10897181 0.040509619 9.1867992e-039
0.15162833 0.10976179 0.040241107 1.5082643e-038
0.15308276 0.11134199 0.039315544 1.4562589e-038
0.15464789 0.11213198 0.039043944 1.8349454e-038
0.15645553 0.11134166 0.040085107 1.8533841e-038
0.15902781 0.10581026 0.045073021 1.8349809e-038
0.0034508824 0.10633018 0.006875434 1.8164337e-038
0.0055023995 0.10870557 0.0054643461 1.8257251e-038
0.0071053091 0.10791375 0.0064567481 1.7611885e-038
0.0089244666 0.10870552 0.0062455782 1.7703725e-038
0.010635402 0.10870551 0.0066361912 1.7150551e-038
0.012446432 0.10949733 0.0064230943 1.7519332e-038
0.014252044 0.11028909 0.0062088319 1.6597376e-038
0.016052296 0.11108087 0.0059933141 1.7242746e-038
0.017847087 0.11187265 0.0057765446 1.3923704e-038
0.019457391 0.11108081 0.006770656 1.6782123e-038
0.021072874 0.11028899 0.0077659353 1.6321146e-038
0.022609331 0.1087053 0.0093696825 1.779592e-038
0.024482604 0.11028893 0.0085443147 1.6966521e-038
0.026187282 0.11028888 0.0089334678 1.8165063e-038
0.027968079 0.11108064 0.0087135052 1.8349097e-038
0.029448973 0.10870516 0.010931055 1.82569e-038
0.031229502 0.10949697 0.010710981 1.8164704e-038
0.03300456 0.11028872 0.010489712 1.5122247e-038
0.034839824 0.11187229 0.0096556861 1.3554923e-038
0.036475297 0.11108043 0.010655506 1.8533845e-038
0.038115904 0.11028859 0.01165649 1.8626042e-038
0.039819334 0.11028855 0.012045357 1.8257256e-038
0.041577656 0.11108028 0.011820231 1.7058355e-038
0.043278068 0.11108023 0.012208392 1.8441291e-038
0.044928566 0.11028839 0.013211621 1.5675422e-038
0.046631258 0.11028833 0.013600299 1.6781767e-038
0.048378207 0.11108007 0.013372572 1.6966161e-038
0.05003605 0.11028823 0.014377494 1.6966161e-038
0.051738147 0.11028817 0.014766019 1.7703726e-038
0.053440012 0.11028811 0.015154489 1.8533129e-038
0.055209331 0.11187164 0.014305391 1.8441651e-038
0.056905471 0.11187159 0.014692547 1.7796282e-038
0.058572844 0.11107972 0.015699631 1.7519335e-038
0.060219415 0.10949605 0.01732845 1.8256896e-038
0.061922804 0.10949598 0.017717257 1.622895e-038
0.063646555 0.11028771 0.017484225 1.6966514e-038
0.065364771 0.11107943 0.017249933 1.7335295e-038
0.067077421 0.11187118 0.017014381 1.4661269e-038
0.06878455 0.1126629 0.016777551 1.798031e-038
0.07047613 0.11266283 0.017163655 1.3831514e-038
0.072152771 0.11107915 0.018799316 1.6044565e-038
0.073835045 0.10870362 0.021062791 1.7242748e-038
0.075543202 0.11028719 0.020199673 1.8808633e-038
0.077241115 0.11107893 0.019960729 1.7606488e-038
0.078933448 0.11187065 0.019720532 8.0934151e-039
0.080637902 0.11028697 0.021362524 2.0921561e-038
0.082335599 0.11028688 0.021750018 2.0003216e-038
0.084021851 0.11107861 0.02150842 1.0317639e-038
0.085716352 0.11107852 0.021895166 1.0677795e-038
0.087410577 0.11107843 0.022281878 1.7329907e-038
0.089104526 0.11107834 0.022668505 1.760685e-038
0.090819947 0.11028646 0.023686528 1.9729866e-038
0.092540361 0.10949457 0.024705682 1.8992303e-038
0.094211735 0.1102863 0.024460671 1.9537551e-038
0.095877565 0.111078 0.024214398 1.0475742e-038
0.097570099 0.11107791 0.024600703 1.1226623e-038
0.099262379 0.11107782 0.024986954 2.1195629e-038
0.10102955 0.10949412 0.026643248 5.7928473e-039
0.10272652 0.10949405 0.02703057 1.2126977e-038
0.10446609 0.10870209 0.028054122 1.1851112e-038
0.10611963 0.10949386 0.027804991 1.2311014e-038
0.10776763 0.11028557 0.027554648 1.3603555e-038
0.10935926 0.11186908 0.026664963 1.9263487e-038
0.1109935 0.1126608 0.026411466 2.0280159e-038
0.11279035 0.11107709 0.028074527 1.9908495e-038
0.11453874 0.11028519 0.029100062 1.5668215e-038
0.11623084 0.1102851 0.029486252 1.0778967e-038
0.11792265 0.11028499 0.02987238 1.3330205e-038
0.11954758 0.11107671 0.029616758 1.1488097e-038
0.1212362 0.1110766 0.030002164 1.8990505e-038
0.12285269 0.11186832 0.029744623 1.89905e-038
0.12453813 0.11186823 0.030129299 9.0020548e-039
0.12630042 0.11107631 0.031157995 1.5916007e-038
0.12798797 0.11107621 0.031543136 2.2121911e-038
0.12967525 0.11107611 0.031928234 1.9805861e-038
0.13136227 0.11107602 0.032313265 7.2607775e-039
0.13304904 0.11107592 0.032698236 1.9447883e-038
0.13473554 0.11107583 0.033083156 1.1978238e-038
0.13651471 0.11028392 0.034115694 2.0737177e-038
0.13829891 0.10949202 0.035149395 1.3179651e-038
0.14008813 0.10870006 0.036184266 9.2822263e-039
0.14178155 0.10869996 0.036570773 1.231818e-038
0.14326787 0.11028352 0.035656981 2.2761147e-038
0.14506164 0.10949162 0.036692869 1.8533117e-038
0.14675172 0.10949152 0.037078604 1.8716788e-038
0.14866427 0.10790776 0.038768113 1.7861107e-038
0.15024525 0.10869947 0.038502466 1.2501522e-038
0.15182076 0.10949123 0.038235512 1.9434918e-038
0.15327162 0.11107475 0.037313674 1.9818459e-038
0.15495543 0.11107465 0.037697986 1.8533485e-038
0.15663905 0.11107455 0.038082253 1.844129e-038
0.15921207 0.10553175 0.043054923 1.834981e-038
0.0038755112 0.10605142 0.0049119745 1.8349448e-038
0.0059229415 0.10843182 0.0035065725 1.8072863e-038
0.007631348 0.10843181 0.0038966057 1.8164703e-038
0.0094446866 0.10922527 0.0036863452 1.8349094e-038
0.011252676 0.11001872 0.0034748469 1.8256896e-038
0.012955543 0.11001872 0.0038636208 1.8349094e-038
0.014658339 0.1100187 0.0042523826 1.844129e-038
0.016455395 0.11081215 0.0040384037 1.8256896e-038
0.018155344 0.11081215 0.0044265091 1.7519332e-038
