# .PCD v0.7 - Point Cloud Data file format
VERSION 0.7
FIELDS x y z rgb
SIZE 4 4 4 4
TYPE F F F F
COUNT 1 1 1 1
WIDTH 950
HEIGHT 1
VIEWPOINT 0 0 0 1 0 0 0
POINTS 950
DATA ascii
0.060707849 0.16015002 0.020235114 2.0006607e-038
0.062398825 0.16143723 0.018597769 2.000696e-038
0.064550184 0.1601443 0.020162918 1.9914761e-038
0.066471107 0.16014135 0.020126713 1.9822565e-038
0.068515167 0.15949331 0.020890906 2.0006236e-038
0.070438512 0.15949023 0.02085449 1.9729292e-038
0.072490379 0.15884209 0.0216184 2.0280672e-038
0.074416123 0.15883891 0.021581821 1.9634945e-038
0.076475792 0.15819064 0.022345427 2.0002651e-038
0.078267127 0.15883237 0.021508418 1.9263302e-038
0.080052875 0.1594741 0.020671498 1.8800524e-038
0.081975259 0.15947072 0.020634692 1.778388e-038
0.083897486 0.15946729 0.020597851 1.6490295e-038
0.085967168 0.15881875 0.021360952 8.5605421e-039
0.087591089 0.16010538 0.019724023 2.5783317e-039
0.089663148 0.15945676 0.02048697 7.4022751e-040
0.09142895 0.16009825 0.019650087 6.4875495e-040
0.093664549 0.15880445 0.021212619 6.4875495e-040
0.095910788 0.15751056 0.022774965 7.4165683e-040
0.099314786 0.15170091 0.029934932 9.2747321e-040
0.0049851215 0.1577456 0.021323342 1.2007811e-039
0.0067325146 0.16097781 0.017290367 4.6363781e-040
0.0085701896 0.16227022 0.015657404 1.1622512e-038
0.010522589 0.16162284 0.016423963 1.3276214e-038
0.012480364 0.16097531 0.017190304 1.6225747e-038
0.014490828 0.15968117 0.018756177 1.5766928e-038
0.016462071 0.15903348 0.019522119 4.6105508e-039
0.01833321 0.15967894 0.018688528 1.8072894e-038
0.020198857 0.16032423 0.017854951 3.5956912e-039
0.022117166 0.16032293 0.017820943 1.6320485e-038
0.024096256 0.15967497 0.018586285 8.6700368e-039
0.026017116 0.15967348 0.018551987 1.8350218e-038
0.027937884 0.15967192 0.018517602 5.5543127e-040
0.029858584 0.15967026 0.0184831 1.6594918e-038
0.031779177 0.15966855 0.018448511 3.504611e-039
0.033699691 0.15966675 0.018413816 1.5307393e-038
0.035542943 0.16031148 0.017579833 1.4386156e-038
0.037460517 0.16030952 0.017545005 1.1070369e-038
0.039378006 0.16030753 0.017510086 1.2176353e-038
0.041210078 0.16095203 0.016676011 7.1001971e-039
0.043124612 0.16094989 0.01664095 1.1895094e-038
0.044857625 0.16224089 0.01500793 1.0696582e-038
0.046953328 0.16094536 0.016570548 2.7674047e-039
0.04877137 0.16158959 0.015736377 3.7179671e-040
0.050880373 0.16029391 0.017298589 3.7141696e-040
0.05279699 0.1602914 0.017263016 1.7332762e-038
0.054713488 0.16028883 0.017227381 1.9728974e-038
0.056629818 0.16028619 0.017191667 2.0098464e-038
0.058436364 0.16093011 0.016357264 2.0098815e-038
0.060349707 0.16092736 0.016321417 2.0006974e-038
0.062147826 0.16157117 0.015487023 2.0099156e-038
0.064175971 0.16092163 0.016249519 1.9822569e-038
0.066329926 0.1596254 0.01781022 1.9914761e-038
0.068371341 0.15897569 0.018572364 1.9914405e-038
0.070292071 0.15897261 0.018535992 2.00066e-038
0.072083995 0.15961617 0.017701287 1.9544902e-038
0.074133053 0.1589663 0.018463066 1.9451626e-038
0.076187372 0.15831637 0.01922461 2.027996e-038
0.077973396 0.15895978 0.018389873 2.0370363e-038
0.079753831 0.15960318 0.017555118 1.9632798e-038
0.081528686 0.16024648 0.01672044 1.9446616e-038
0.083297975 0.16088974 0.015885811 1.7692395e-038
0.085356869 0.16023958 0.016646948 1.6212318e-038
0.087120399 0.1608828 0.015812341 1.3355757e-038
0.089184389 0.16023256 0.016573301 7.3697089e-040
0.091253601 0.15958223 0.017334072 7.4058203e-040
0.093328074 0.15893184 0.018094771 4.6436088e-040
0.09556891 0.15763471 0.019652864 2.8068008e-040
0.099786498 0.14857659 0.030781463 5.5761449e-040
0.0048931353 0.15787601 0.018205352 1.0156807e-039
0.006671818 0.16046825 0.014980964 8.6600245e-043
0.0085461047 0.16111571 0.014150031 1.7523718e-038
0.010498606 0.16046667 0.014914457 4.3382953e-039
0.01245648 0.15981755 0.015678663 1.7426462e-038
0.014419746 0.1591683 0.016442636 1.4016302e-038
0.01638836 0.15851903 0.017206455 1.051179e-038
0.018256955 0.15916607 0.016375076 1.3831187e-038
0.020064656 0.16046128 0.014746285 6.1782423e-039
0.022093901 0.15916349 0.016307089 1.4753143e-038
0.024073109 0.15851389 0.017070325 1.6967279e-038
0.02612119 0.15721589 0.018630642 8.2980453e-039
0.02791499 0.15851083 0.01700162 2.0294809e-039
0.029904811 0.1578609 0.01776436 1.4381148e-038
0.031684857 0.1591557 0.016135383 3.6889462e-040
0.033677168 0.15850566 0.016897826 1.4570549e-038
0.035520576 0.15915203 0.016065998 1.4847856e-038
0.037438277 0.15915008 0.01603114 1.0229479e-043
0.039355874 0.15914807 0.01599622 1.5584004e-038
0.041273355 0.15914598 0.015961206 9.4983569e-039
0.043102764 0.15979207 0.015129229 7.4689769e-039
0.044835959 0.16108634 0.013500461 1.4293265e-038
0.046744939 0.16108403 0.013465304 1.0163898e-039
0.048653815 0.16108167 0.013430079 3.7179671e-040
0.050760143 0.15978271 0.014988028 8.3312238e-040
0.052674167 0.1597802 0.014952524 7.1942019e-039
0.054588042 0.15977763 0.014916931 2.046727e-038
0.056501787 0.15977499 0.014881241 2.0282146e-038
0.058196094 0.16106883 0.013252586 2.0283931e-038
0.060216498 0.1604178 0.014013263 1.991478e-038
0.062012017 0.16106325 0.013181033 2.0006966e-038
0.063919753 0.16106036 0.013145136 1.9914763e-038
0.065947838 0.16040915 0.013905417 1.9822569e-038
0.067981184 0.15975782 0.014665491 1.9822209e-038
0.070019789 0.15910646 0.015425427 1.9914406e-038
0.07193502 0.15910333 0.015389078 1.9729659e-038
0.07385011 0.15910015 0.015352659 1.9729303e-038
0.075899072 0.15844861 0.016112188 2.0096649e-038
0.077679791 0.15909363 0.01527966 2.027996e-038
0.079454914 0.15973863 0.014447182 2.0186322e-038
0.081366636 0.15973528 0.014410585 1.9355487e-038
0.083278179 0.15973182 0.014373889 1.9076034e-038
0.085189551 0.15972835 0.014337178 1.7689916e-038
0.08725103 0.15907648 0.015096072 1.6584321e-038
0.089317746 0.15842459 0.015854808 6.9079068e-039
0.091234013 0.15842098 0.015817819 1.2901475e-039
0.093150124 0.15841733 0.015780794 4.6364342e-040
0.095388263 0.15711686 0.017334681 3.7251978e-040
0.10025805 0.14544225 0.031615011 2.8032415e-040
0.0030988301 0.15346444 0.020698885 2.7691283e-039
0.0047676084 0.15866277 0.014300024 1.3830536e-039
0.0065747681 0.16061167 0.011879941 5.5440552e-040
0.0085610989 0.15931119 0.013438027 1.86702e-040
0.010474624 0.15931036 0.013404708 1.2331426e-042
0.012388085 0.15930945 0.013371302 1.5876712e-042
0.014301493 0.15930843 0.013337746 2.6624671e-042
0.016264781 0.15865751 0.014099522 8.0235842e-039
0.018180789 0.15865636 0.014065733 6.5455604e-039
0.020096716 0.15865511 0.014031836 8.2050958e-039
0.022012563 0.15865377 0.01399784 8.942658e-039
0.023928346 0.15865238 0.013963746 3.5935416e-039
0.025907557 0.15800102 0.014724689 6.7321615e-039
0.027759658 0.15864933 0.013895248 1.1797169e-038
0.029675156 0.15864769 0.013860834 7.0955659e-039
0.031518944 0.15929586 0.013031337 2.5830275e-039
0.033580277 0.1579943 0.014586681 1.1438802e-038
0.035421148 0.15864232 0.013757049 1.1990179e-038
0.037336253 0.15864037 0.013722238 7.8378014e-039
0.039168756 0.15928823 0.012892534 1.6413766e-038
0.041080914 0.15928614 0.01285761 8.1172287e-039
0.04299299 0.159284 0.012822589 1.2173122e-038
0.044723637 0.16058159 0.011198116 1.5489999e-038
0.046723392 0.15992935 0.011957673 8.2036833e-039
0.048536297 0.16057692 0.011127811 4.6398393e-040
0.050639983 0.15927464 0.012681581 1.1097191e-039
0.052551415 0.15927213 0.012646124 3.0057852e-042
0.054462668 0.15926954 0.012610551 9.1299037e-039
0.056266908 0.15991682 0.011780565 1.9086561e-038
0.058065571 0.16056406 0.010950543 1.9361634e-038
0.059971008 0.16056134 0.010914871 2.0006265e-038
0.061991334 0.15990853 0.011673337 2.0006974e-038
0.063545913 0.16185549 0.009254925 1.9914779e-038
0.065565929 0.16120262 0.010013209 2.0099156e-038
0.067468032 0.16119961 0.0099772504 2.0099156e-038
0.069747619 0.15924668 0.012323246 2.0191356e-038
0.071657546 0.15924355 0.01228701 1.9730023e-038
0.073567286 0.15924039 0.012250703 2.0190998e-038
0.075342879 0.15988712 0.011420492 1.9821501e-038
0.077249594 0.15988383 0.011384074 1.9729303e-038
0.079156131 0.15988052 0.011347629 1.9819692e-038
0.08120463 0.15922716 0.012104797 2.0003365e-038
0.082968704 0.15987372 0.011274545 1.9539172e-038
0.085022286 0.15922028 0.012031505 1.8983853e-038
0.086930856 0.15921676 0.011994772 1.8428175e-038
0.089145161 0.15791319 0.013544912 1.676547e-038
0.090903118 0.15855959 0.012714541 6.9917535e-039
0.092813872 0.15855595 0.012677628 7.3770797e-040
0.095207684 0.1566022 0.015020646 6.4803468e-040
0.0031667179 0.15033874 0.021550421 1.2939982e-039
0.0047431653 0.15750462 0.012787923 1.6589244e-039
0.006550577 0.15945849 0.010374293 5.5405099e-040
0.0084979171 0.1588062 0.011134646 2.7818297e-040
0.010408864 0.15880539 0.011101396 2.7818297e-040
0.01227526 0.15945598 0.01027461 4.6293436e-040
0.014183348 0.159455 0.010241194 4.2443172e-039
0.015991598 0.16075693 0.008621146 1.383009e-038
0.017999403 0.15945277 0.010173992 1.3736443e-038
0.01985199 0.16010304 0.0093470858 1.0876579e-038
0.021931294 0.15814716 0.011692637 1.244283e-038
0.023844484 0.15814576 0.011658571 6.7249434e-039
0.025821067 0.15749279 0.012417442 7.1895257e-039
0.027670609 0.15814272 0.011590168 4.4236652e-039
0.029583558 0.15814109 0.011555831 1.0784083e-038
0.031424772 0.15879089 0.010728505 5.4399696e-039
0.033483457 0.15748605 0.012279611 5.1641071e-039
0.035398804 0.15748419 0.012244917 8.4817009e-039
0.037234277 0.15813377 0.011417409 1.7557569e-039
0.039146695 0.15813176 0.01138257 2.494052e-039
0.040973805 0.1587812 0.010555019 1.8458128e-039
0.042883277 0.15877903 0.010520037 2.6791678e-039
0.044702001 0.15942837 0.009692397 5.9981964e-039
0.046701834 0.1587745 0.01044981 5.3513977e-039
0.048514877 0.15942371 0.0096220998 1.8469212e-039
0.05051988 0.1587697 0.010379206 1.3852284e-039
0.052428707 0.15876719 0.01034379 4.6364062e-040
0.054233197 0.1594162 0.0095159691 9.4122415e-041
0.056032144 0.16006513 0.0086882235 7.7491511e-039
0.057825532 0.160714 0.0078604985 1.927019e-038
0.059950244 0.15940809 0.0094091045 1.9177242e-038
0.061740603 0.16005684 0.0085812686 2.0190655e-038
0.063525401 0.16070554 0.00775345 2.0283207e-038
0.065304607 0.16135418 0.0069256639 1.9915486e-038
0.06744767 0.16004802 0.0084736198 2.0099523e-038
0.069727287 0.15809017 0.010813209 2.0099526e-038
0.071637288 0.15808706 0.010776971 2.0191366e-038
0.073415875 0.15873545 0.0099488795 1.9822583e-038
0.075322829 0.15873224 0.0099125486 1.9914412e-038
0.077092938 0.15938058 0.0090844566 1.9822209e-038
0.078996845 0.15937728 0.0090480633 2.0004451e-038
0.0810427 0.15872222 0.0098031498 2.009485e-038
0.083093785 0.1580672 0.010558077 1.972356e-038
0.085002601 0.15806372 0.010521384 1.9261146e-038
0.087061457 0.15740857 0.011276009 1.8797664e-038
0.088972628 0.15740499 0.011239157 1.7688474e-038
0.09057235 0.15870465 0.0096196905 1.5843536e-038
0.092477731 0.158701 0.0095828464 1.2869021e-039
0.095027156 0.15609074 0.012710663 4.6364342e-040
0.0031108879 0.14981553 0.019223114 1.1099587e-039
0.0046515493 0.15765262 0.0096928552 1.4745387e-039
0.006453786 0.1596114 0.0072857416 5.5262167e-040
0.0083957836 0.15895751 0.008043997 1.2457543e-042
0.010301408 0.15895668 0.008010814 4.622239e-040
0.012162549 0.15960893 0.0071863541 8.3136235e-040
0.014065375 0.15960793 0.0071530072 6.4875495e-040
0.015918246 0.16025999 0.0063284561 4.153607e-039
0.017870814 0.1596057 0.0070860004 1.0193045e-039
0.019828746 0.15895131 0.0078433473 3.6000619e-039
0.021792054 0.15829684 0.0086004892 4.5180595e-039
0.02376068 0.15764228 0.009357499 3.7830238e-039
0.025671195 0.1576408 0.0093234051 7.0116379e-039
0.027581647 0.15763922 0.009289165 6.4541579e-039
0.02942312 0.15829079 0.0084640561 4.7946422e-039
0.031402249 0.1576359 0.0092204632 5.6268761e-039
0.033312403 0.15763409 0.0091859503 1.2912102e-038
0.035145406 0.15828544 0.0083606932 5.5364854e-039
0.036972903 0.15893665 0.007535452 4.5223601e-039
0.038959753 0.15828149 0.0082912957 5.4439619e-039
0.040781565 0.15893258 0.007465987 9.2355798e-040
0.042773608 0.15827724 0.0082215266 2.7783264e-040
0.044589773 0.15892819 0.0073961159 3.7074854e-040
0.046586979 0.15827271 0.0081513599 9.4161652e-041
0.048301466 0.15957673 0.0065356363 8.3136235e-040
0.050301105 0.15892109 0.0072906455 5.5512999e-040
0.052204613 0.15891859 0.0072553204 5.5476986e-040
0.054107975 0.15891603 0.0072199251 3.7073873e-040
0.055797491 0.1602198 0.005604303 3.0085878e-042
0.057804722 0.15956391 0.0063588489 9.2566554e-040
0.059817206 0.15890794 0.007113196 1.3925164e-038
0.061719969 0.15890512 0.007077449 1.9360951e-038
0.063387208 0.16020866 0.005461921 2.0189962e-038
0.06528423 0.16020572 0.0054261298 2.0375038e-038
0.067427337 0.15889628 0.0069698039 2.0191011e-038
0.069455303 0.15823999 0.0077234861 2.0006974e-038
0.07135997 0.15823689 0.0076873344 2.0006974e-038
0.073395737 0.15758044 0.0084407767 1.9730387e-038
0.075168826 0.15823048 0.0076148268 2.0283551e-038
0.076936342 0.15888044 0.0067889616 2.0098796e-038
0.078698263 0.15953037 0.0059631383 1.9729648e-038
0.080880821 0.15822048 0.0075055594 2.0097354e-038
0.082929261 0.15756375 0.0082584117 1.9909384e-038
0.084687933 0.15821359 0.0074324245 1.8986706e-038
0.086591229 0.15821007 0.0073957788 1.888914e-038
0.088341452 0.15885979 0.0065698996 1.7965402e-038
0.090241671 0.15885618 0.006533186 1.7687055e-038
0.092300035 0.15819927 0.0072855279 2.0251565e-039
0.094846696 0.15558237 0.010404859 9.2425022e-040
0.0031167977 0.14798589 0.018478461 2.0326297e-039
0.0046271682 0.15649745 0.0081846351 1.3823431e-039
0.0064659002 0.15780637 0.0065731234 1.0139571e-039
0.0083327657 0.15846041 0.0057509099 9.2248319e-040
0.010235811 0.15845957 0.0057177683 6.458977e-040
0.012094407 0.15911347 0.0048954887 2.7783264e-040
0.01404178 0.15845767 0.0056511853 2.796235e-040
0.015894819 0.15911138 0.0048287627 4.6436929e-040
0.01784749 0.15845545 0.0055841757 7.4095058e-040
0.019750239 0.15845421 0.0055505196 2.7889483e-040
0.021710919 0.15779811 0.0063055712 5.5512719e-040
0.023616223 0.15779671 0.0062716552 4.6257703e-040
0.025521446 0.15779522 0.0062376312 2.785431e-040
0.027360473 0.15844849 0.0054148664 6.4768295e-040
0.029262792 0.15844685 0.0053806948 4.6328609e-040
0.031236595 0.15779036 0.0061350106 5.5583064e-040
0.033141442 0.15778857 0.0061006029 1.2955355e-039
0.034892228 0.15909632 0.0044891336 8.3133713e-040
0.036711719 0.15974918 0.0036661993 8.3134694e-040
0.038690504 0.15909238 0.0044200239 8.3100642e-040
0.040759727 0.15778071 0.0059620012 5.5441953e-040
0.042751852 0.15712371 0.006715388 5.5441953e-040
0.044477604 0.15843113 0.005103901 7.3953106e-040
0.046285659 0.15908366 0.004280719 3.7074854e-040
0.04818413 0.15908131 0.0042456682 5.551398e-040
0.050181147 0.15842406 0.0049986131 8.3136235e-040
0.052082062 0.15842156 0.0049633309 3.703814e-040
0.053982809 0.15841898 0.0049279593 5.5512999e-040
0.055776615 0.15907121 0.0041045882 3.7181353e-040
0.057783902 0.15841366 0.0048569795 6.4803188e-040
0.059684224 0.15841091 0.0048213731 3.0085878e-042
0.061469428 0.15906294 0.0039979122 1.0418787e-038
0.063366726 0.15906008 0.0039622197 1.9638986e-038
0.065263852 0.15905713 0.0039264127 1.9821522e-038
0.067406997 0.15774441 0.0054657958 2.0190305e-038
0.069309227 0.15774134 0.0054297559 2.0374329e-038
0.071339786 0.15708335 0.0061811758 1.9914779e-038
0.073244385 0.15708017 0.0061449567 2.0283551e-038
0.075148821 0.15707695 0.0061086672 2.0375384e-038
0.07677982 0.15838343 0.0044975667 2.0190993e-038
0.078539141 0.15903503 0.0036739493 2.0374293e-038
0.080434918 0.15903164 0.0036376254 2.0004794e-038
0.082475267 0.15837333 0.0043884404 1.9817544e-038
0.0843734 0.15836987 0.0043519484 1.9447331e-038
0.086121172 0.15902126 0.0035282932 1.8706191e-038
0.088016249 0.15901771 0.0034917323 1.7781376e-038
0.090066709 0.1583592 0.0042421245 1.5935059e-038
0.092280686 0.15704569 0.005779305 1.8425674e-039
0.094988309 0.15376732 0.0096769668 7.4057923e-040
0.0031226301 0.14615276 0.017729342 8.5781593e-039
0.0046698302 0.15402927 0.0082503669 4.1503308e-039
0.0064779804 0.1559979 0.0058560087 1.0421424e-038
0.0083866511 0.15599716 0.0058228914 1.0330304e-038
0.010253618 0.15665273 0.0050026835 9.592384e-039
0.012203856 0.15599541 0.0057563283 5.4428716e-039
0.014018174 0.15730724 0.0041491254 6.0810286e-039
0.015971011 0.15664977 0.0049025156 4.6930523e-039
0.017876687 0.15664861 0.0048688976 5.0589663e-039
0.019837532 0.15599093 0.0056219194 4.5065254e-039
0.021629855 0.15730247 0.0040147044 3.4938308e-039
0.023593253 0.15664464 0.0047674626 1.4716633e-039
0.025371838 0.15795606 0.0031603207 6.44069e-040
0.027271692 0.15795451 0.0031262895 1.1994064e-039
0.029102605 0.15860933 0.0023056967 1.0157368e-039
0.031142592 0.15729475 0.0038444004 1.0153837e-039
0.032970622 0.15794942 0.0030236484 9.2354397e-040
0.034793112 0.158604 0.0022028931 1.10901e-039
0.036610052 0.15925857 0.0013821248 6.4803468e-040
0.03858621 0.15860008 0.0021338968 9.2391251e-040
0.040652778 0.15728509 0.0036716114 6.4732562e-040
0.042730086 0.15597004 0.0052090613 5.5512999e-040
0.044365507 0.1579372 0.0028157865 6.469739e-040
0.046170998 0.15859136 0.0019947665 5.5441953e-040
0.04797091 0.15924552 0.0011737349 4.622239e-040
0.049962599 0.15858659 0.0019246857 6.469739e-040
0.051959556 0.15792763 0.0026753885 6.4733543e-040
0.053961791 0.15726858 0.0034258945 1.8671601e-040
0.055862512 0.15726596 0.0033904572 8.3136235e-040
0.057872593 0.15660679 0.0041406816 7.3881079e-040
0.059663512 0.15726051 0.0033193147 5.551398e-040
0.061563771 0.15725771 0.0032836471 4.6400916e-040
0.063228615 0.15856782 0.0016767362 1.0168116e-039
0.065243475 0.15790839 0.0024265235 1.1621352e-038
0.067140535 0.15790538 0.0023906417 1.6969332e-038
0.069163218 0.15724584 0.0031401527 2.0007398e-038
0.071062647 0.15724272 0.0031040867 1.9176533e-038
0.072830744 0.15789607 0.0022826428 2.0004833e-038
0.074727133 0.15789285 0.0022464965 2.000483e-038
0.076623335 0.15788957 0.0022102694 2.0189559e-038
0.078380071 0.15854281 0.0013888753 1.9820414e-038
0.080415227 0.1578829 0.0021376978 1.9910459e-038
0.082310908 0.15787947 0.0021012966 1.8986011e-038
0.08405897 0.15853254 0.0012798305 1.8893106e-038
0.085801437 0.15918565 0.00045839418 1.7785003e-038
0.087691151 0.1591821 0.00042192265 1.6217716e-038
0.089891806 0.15786538 0.0019552018 2.0284132e-039
0.092103094 0.15654859 0.0034881351 8.3242314e-040
0.09464696 0.15391856 0.0065903608 8.3350634e-040
0.0048463233 0.14892209 0.011447194 1.2000706e-039
0.0066710059 0.1508956 0.0090590371 4.3354325e-039
0.0085182618 0.15221101 0.0074558556 1.1896898e-038
0.010396249 0.15286821 0.0066375923 1.0421408e-038
0.012313107 0.15286729 0.0066041043 9.8682282e-039
0.014182842 0.15352437 0.0057858187 8.0210618e-039
0.016096843 0.1535233 0.0057521593 1.2253708e-038
0.017958308 0.1541802 0.0049338038 1.4649715e-038
0.019869465 0.15417898 0.004900001 1.3728129e-038
0.021780558 0.15417765 0.0048660897 1.4650805e-038
0.023630913 0.15483436 0.0040475479 1.4466792e-038
0.025539104 0.1548329 0.004013489 1.4559358e-038
0.027315099 0.15614749 0.0024105522 1.4097676e-038
0.029148895 0.15680395 0.0015920512 1.3359045e-038
0.031048663 0.15680224 0.0015578263 1.3816088e-038
0.032948334 0.15680048 0.001523513 1.2525363e-038
0.0348479 0.15679863 0.0014891268 1.0314849e-038
0.036588084 0.15811291 -0.00011371449 8.2890728e-039
0.038646679 0.1567947 0.0014200138 4.1442463e-039
0.040801097 0.15481834 0.003737441 3.7790693e-039
0.042708311 0.15481618 0.0037024992 2.4883389e-039
0.04452493 0.15547207 0.0028835484 1.6567874e-039
0.046335973 0.1561279 0.0020645899 1.7479082e-039
0.048141468 0.15678364 0.00124564 3.6749613e-040
0.049842764 0.15809746 -0.00035714335 5.5116432e-040
0.051735755 0.15809497 -0.00039226352 1.5554413e-043
0.05373266 0.15743428 0.00035627093 1.2359452e-042
0.055734836 0.15677357 0.0011045905 7.3952125e-040
0.057523318 0.15742898 0.000285496 1.0164711e-039
0.059418432 0.15742624 0.00024999981 6.4732562e-040
0.06142826 0.1567653 0.00099790539 9.2283351e-040
0.063208163 0.15742056 0.00017876481 8.3099241e-040
0.065102778 0.15741761 0.00014300295 1.3855857e-039
0.066997215 0.15741462 0.0001071943 3.728645e-040
0.069142982 0.1560953 0.0016378912 4.2424731e-039
0.071042515 0.15609217 0.0016018318 1.2631838e-038
0.072810717 0.15674718 0.00078253425 1.6776257e-038
0.074573331 0.15740213 -3.6744634e-005 1.871234e-038
0.076466925 0.15739885 -7.2891125e-005 1.8529347e-038
0.078360334 0.15739554 -0.00010911352 1.9818644e-038
0.080395557 0.156734 0.00063758995 1.8987453e-038
0.082291313 0.15673058 0.00060117757 1.8338873e-038
0.084186882 0.15672712 0.00056473678 1.7416575e-038
0.085932165 0.1573818 -0.00025458448 8.2922145e-039
0.087671824 0.15803649 -0.0010739048 2.302807e-039
0.089872494 0.15671647 0.00045505725 5.5583625e-040
0.092083782 0.1553964 0.0019837166 5.5656352e-040
0.094466664 0.15341805 0.0042947768 5.5656352e-040
0.0049889218 0.14445475 0.01383527 1.1085882e-039
0.0068274341 0.14643314 0.01145326 1.7546639e-039
0.0086495876 0.14841154 0.0090714339 1.3742217e-038
0.010538612 0.1490704 0.0082551362 1.5768712e-038
0.012555081 0.14775006 0.0097867213 1.1063501e-038
0.014394252 0.14906847 0.008187687 4.9760613e-039
0.016321966 0.14906739 0.0081538064 1.2157162e-038
0.018197181 0.14972594 0.0073373429 1.2708887e-038
0.020066841 0.15038446 0.0065208212 1.3354258e-038
0.022046831 0.14972337 0.0072691427 1.3352093e-038
0.023910921 0.15038173 0.0064525302 1.3537558e-038
0.025769506 0.15103996 0.0056359139 1.3814501e-038
0.027622573 0.15169811 0.0048193312 1.4643907e-038
0.029470103 0.15235621 0.0040027187 1.3722318e-038
0.031383567 0.15235451 0.0039682696 1.3907428e-038
0.033296943 0.15235272 0.0039337277 1.3631918e-038
0.035133298 0.15301058 0.0031170144 1.4275856e-038
0.036884513 0.15432814 0.0015182692 1.5103104e-038
0.038954038 0.15300663 0.0030475084 1.5195654e-038
0.040949244 0.15234482 0.0037945209 1.4830113e-038
0.042949766 0.15168294 0.0045413543 1.4830834e-038
0.044774678 0.15234044 0.0037243594 1.722612e-038
0.046593998 0.15299788 0.0029074019 1.990158e-038
0.048503663 0.15299553 0.0028721604 1.9816566e-038
0.050215986 0.15431264 0.0012734805 2.0463374e-038
0.052119944 0.15431014 0.0012381442 2.0006747e-038
0.054023731 0.15430757 0.0012027458 1.9915634e-038
0.055927377 0.15430495 0.0011672499 1.8533079e-038
0.05772144 0.15496202 0.00035021454 1.6504422e-038
0.059509918 0.15561906 -0.00046677212 1.5120058e-038
0.06152254 0.15495646 0.00027892902 1.281518e-038
0.063187689 0.15627313 -0.0013194147 9.3117558e-039
0.065082401 0.15627021 -0.0013551627 7.0065414e-039
0.066853955 0.15692705 -0.002172213 3.0410783e-039
0.06899704 0.15560439 -0.00064569945 2.7634404e-039
0.071022376 0.1549415 9.9379569e-005 1.3808717e-039
0.072790705 0.15559812 -0.00071778684 1.7492801e-039
0.074553438 0.15625471 -0.0015349123 3.0389315e-039
0.076174013 0.15757111 -0.0031329736 3.7757623e-039
0.077922821 0.15822762 -0.0039499751 3.9605193e-039
0.079949968 0.15756446 -0.0032052496 3.1300496e-039
0.081982359 0.15690121 -0.0024607326 2.3006546e-039
0.083872572 0.15689778 -0.0024970621 1.5634567e-039
0.085762627 0.15689428 -0.0025334619 1.8379991e-040
0.08765249 0.15689072 -0.0025699339 1.0146494e-039
0.089542165 0.15688716 -0.0026064184 6.4732282e-040
0.091431625 0.15688351 -0.0026430045 8.3171408e-040
0.093642764 0.15556012 -0.0011186048 6.4803188e-040
0.0036002803 0.13071243 0.027165683 8.7621652e-039
0.0050977711 0.14063211 0.015420982 1.2007811e-039
0.0069835111 0.14195409 0.013825851 1.2022048e-039
0.0087806284 0.14459875 0.01066961 1.263623e-038
0.010722253 0.1445979 0.010635801 1.466273e-038
0.012752386 0.14327431 0.012162892 9.1284758e-039
0.014699321 0.14327329 0.012128776 6.9125212e-039
0.016596472 0.14393355 0.011314173 9.025783e-039
0.018435702 0.14525509 0.0097192321 1.2706735e-038
0.020319114 0.14591518 0.0089046471 1.2338305e-038
0.022312749 0.1452525 0.0096505526 1.3075505e-038
0.024251191 0.1452511 0.0096160565 1.2522687e-038
0.026126208 0.14591095 0.0088013038 1.3167699e-038
0.027863724 0.14789352 0.0064263353 1.4089657e-038
0.029722275 0.14855322 0.0056116674 1.2984031e-038
0.031646729 0.14855152 0.0055770269 1.2891838e-038
0.033645209 0.14788836 0.00632224 1.3353166e-038
0.035495304 0.14854786 0.0055074301 1.4090734e-038
0.03726026 0.1498687 0.0039127399 1.3351013e-038
0.039261125 0.14920531 0.0046575973 1.3904182e-038
0.041352283 0.14788043 0.0061820652 1.4088573e-038
0.04327875 0.14787826 0.0061468049 1.3076224e-038
0.045114651 0.1485374 0.0053317668 1.5380751e-038
0.046944976 0.14919654 0.0045167096 1.7317922e-038
0.048865601 0.14919415 0.0044812635 1.8795199e-038
0.050588954 0.15051448 0.0028867091 1.8619064e-038
0.052605141 0.14985059 0.0036306479 1.9082578e-038
0.054522604 0.149848 0.0035949701 1.9085841e-038
0.056333221 0.15050676 0.0027798784 1.9087281e-038
0.058028825 0.15182689 0.0011854966 1.8996519e-038
0.059937716 0.15182412 0.0011497461 1.9088363e-038
0.061846405 0.1518213 0.0011139123 2.0286553e-038
0.063637406 0.15247989 0.00029880088 2.0561708e-038
0.065422803 0.15313835 -0.00051623932 2.0652843e-038
0.067325585 0.15313536 -0.00055219093 1.5579216e-038
0.069479547 0.15180941 0.00096982066 1.7791208e-038
0.071515769 0.15114485 0.0017125539 1.8346186e-038
0.073426157 0.15114167 0.0016762312 1.7977402e-038
0.075202547 0.15179989 0.00086098746 1.5578891e-038
0.076700307 0.153781 -0.0015118362 1.4008324e-038
0.07846006 0.15443914 -0.0023268936 1.2811612e-038
0.080356173 0.15443578 -0.0023632082 1.1889304e-038
0.082252093 0.15443239 -0.0023995882 1.3271524e-038
0.084147803 0.1544289 -0.0024360658 1.520799e-038
0.087938674 0.15442185 -0.002509112 1.4008395e-038
0.089989312 0.15375675 -0.0017673224 1.345848e-038
0.091728792 0.15441462 -0.0025823922 1.2255985e-038
0.094106212 0.15242645 -0.00028412882 9.5794543e-039
0.0036973006 0.12685192 0.028702011 1.42939e-038
0.0051729428 0.13745913 0.016210765 1.477368e-039
0.0070309183 0.13944745 0.013841258 3.1390305e-039
0.008911402 0.14077267 0.012250434 6.5538575e-039
0.010863998 0.14077181 0.01221644 7.7462882e-039
0.012905077 0.13944492 0.013739013 1.1616686e-038
0.014909959 0.13878088 0.014483065 7.8341132e-039
0.016820887 0.1394428 0.013670316 9.1186989e-039
0.018673869 0.1407676 0.012079407 1.2060648e-038
0.020571059 0.14142933 0.011266741 1.1600386e-038
0.022462711 0.14209105 0.010454015 1.3259896e-038
0.024469949 0.14142659 0.011197474 1.3075861e-038
0.026292736 0.14275113 0.0096066417 1.2982945e-038
0.028170552 0.14341256 0.0087938961 1.2982589e-038
0.029974148 0.14473693 0.0072032525 1.2060987e-038
0.0321238 0.14274618 0.0095019685 1.2429771e-038
0.034141388 0.14208138 0.010244699 1.2798554e-038
0.036010616 0.14274251 0.0094317021 1.2982945e-038
0.037715226 0.14472958 0.0070632873 1.3075494e-038
0.039732475 0.14406456 0.0078057144 1.3259169e-038
0.041670024 0.14406246 0.0077703381 1.2982583e-038
0.043695148 0.14339726 0.008512429 1.289003e-038
0.045544762 0.14405803 0.0076993038 1.4734659e-038
0.047481906 0.14405572 0.0076636504 1.6857297e-038
0.049323112 0.14471637 0.0068505071 1.7598088e-038
0.051257271 0.14471391 0.0068147136 1.8432864e-038
0.053191282 0.14471136 0.0067788274 1.880526e-038
0.055125125 0.14470878 0.0067428751 1.8899628e-038
0.056952152 0.1453692 0.0059295744 1.8901433e-038
0.058773588 0.14602953 0.0051163398 1.8811036e-038
0.06058944 0.1466898 0.004303121 1.8258943e-038
0.062399726 0.14735004 0.0034899598 1.8167105e-038
0.063969359 0.14933635 0.0011227136 1.8718129e-038
0.065883249 0.1493334 0.0010866169 1.8070968e-038
0.067674026 0.14999348 0.00027356762 1.5395863e-038
0.069710493 0.14932734 0.0010142291 1.7053599e-038
0.071623854 0.14932421 0.00097793504 1.7329127e-038
0.073799178 0.14799488 0.0024950595 9.0318871e-039
0.075851381 0.1473285 0.0032352633 9.5793099e-039
0.07736285 0.14931449 0.00086859334 1.1422855e-038
0.078997076 0.15063736 -0.00072116358 1.2806156e-038
0.080762178 0.15129712 -0.0015342946 1.040728e-038
0.082666308 0.15129371 -0.0015708145 1.1146278e-038
0.084422901 0.15195334 -0.002383854 1.612987e-038
0.086473957 0.15128672 -0.001644077 1.723802e-038
0.088377498 0.15128317 -0.0016807725 1.465439e-038
0.090436295 0.15061638 -0.00094122835 1.3917548e-038
0.092183992 0.15127592 -0.0017543498 1.3915055e-038
0.094730385 0.14861964 0.0013135388 1.2623613e-038
0.0037327907 0.12430724 0.028668057 1.2357814e-038
0.005214538 0.13494079 0.016211005 1.2926166e-039
0.0071142646 0.13626936 0.014624229 3.0468236e-039
0.0090418728 0.13693324 0.013813842 7.748435e-039
0.011047 0.13626778 0.014555913 7.7444806e-039
0.013013273 0.13626683 0.014521569 1.152268e-038
0.015026409 0.13560119 0.015263287 7.0047169e-039
0.017044932 0.13493544 0.016004773 7.0017994e-039
0.018964062 0.1355989 0.015193982 1.0035601e-038
0.020822635 0.13692692 0.01360717 1.0864622e-038
0.022670232 0.13825488 0.012020384 1.2708889e-038
0.024627917 0.13825347 0.011985562 1.1693292e-038
0.026522296 0.13891663 0.011174795 1.2337941e-038
0.02841112 0.13957971 0.010364017 1.224396e-038
0.03022578 0.14090736 0.0087773828 1.215176e-038
0.03224358 0.14024095 0.0095181102 1.2797472e-038
0.034340762 0.13890985 0.011034258 1.2890019e-038
0.036295101 0.13890797 0.010998884 1.3259874e-038
0.038169824 0.13957065 0.010187821 1.4274381e-038
0.040038977 0.14023328 0.0093767904 1.5104145e-038
0.041987512 0.14023116 0.0093412194 1.5196338e-038
0.043848265 0.1408937 0.0085301027 1.4182539e-038
0.045703452 0.14155611 0.0077190227 1.5197048e-038
0.04764615 0.14155379 0.0076832687 1.5566547e-038
0.049588732 0.14155141 0.0076474305 1.6762942e-038
0.051432621 0.14221361 0.0068362774 1.833243e-038
0.053270955 0.14287579 0.0060251672 1.7790385e-038
0.055207618 0.14287317 0.0059891432 1.8530114e-038
0.05725079 0.14220583 0.0067281253 1.8624111e-038
0.059189852 0.14220309 0.006691901 1.8624832e-038
0.06101669 0.14286503 0.0058806576 1.8718105e-038
0.062837943 0.14352685 0.0050693806 1.871775e-038
0.064771071 0.14352395 0.0050330386 1.917764e-038
0.066583842 0.14418574 0.0042217583 1.7609962e-038
0.068513922 0.14418271 0.0041852999 1.6221292e-038
0.070695065 0.14285015 0.0056982161 1.6957072e-038
0.072630197 0.142847 0.005661509 8.9346272e-039
0.074696183 0.14217906 0.0063993335 8.2874767e-039
0.076633662 0.14217576 0.0063624149 1.1511084e-038
0.078298025 0.14350194 0.004776461 1.4373836e-038
0.080229692 0.14349857 0.0047395225 1.7600686e-038
0.08187741 0.14482468 0.0031536883 1.6954606e-038
0.083947867 0.14415647 0.0038910941 1.667802e-038
0.08558166 0.14548248 0.002305429 1.2437728e-038
0.087654427 0.14481416 0.0030426653 1.3172402e-038
0.089427002 0.14547533 0.0022313413 1.5481213e-038
0.091504775 0.14480692 0.0029683532 1.6125861e-038
0.093429655 0.14480326 0.0029311245 1.6216982e-038
0.096801825 0.13881642 0.0098602474 1.5848568e-038
0.0037681167 0.12175588 0.028625274 4.1509866e-039
0.0053226189 0.13108313 0.01775096 1.2926194e-039
0.0072334316 0.132415 0.016168306 1.5695636e-039
0.0091720745 0.13308048 0.015359839 8.9466097e-039
0.01114669 0.13307965 0.015325494 1.632153e-038
0.013209621 0.13174617 0.016839115 6.9146975e-039
0.015236466 0.13107888 0.017578447 5.5299497e-039
0.017268641 0.13041149 0.01831755 5.2526117e-039
0.019096889 0.13240914 0.015960852 8.472961e-039
0.020908745 0.13440676 0.0136043 1.0313971e-038
0.022704229 0.13640425 0.011247938 1.1235562e-038
0.024664748 0.13640285 0.011213069 1.1786211e-038
0.026688373 0.13573506 0.011951825 1.2339019e-038
0.028651429 0.13573349 0.011916699 1.2336512e-038
0.030477144 0.13706444 0.010334189 1.3811636e-038
0.032434542 0.13706273 0.010298979 1.5749144e-038
0.034465898 0.13639458 0.011037202 1.5840985e-038
0.036425781 0.13639268 0.011001735 1.5841709e-038
0.038385563 0.13639072 0.010966142 1.6211207e-038
0.040263016 0.13705501 0.010157063 1.6765456e-038
0.042134918 0.13771921 0.0093480442 1.6212635e-038
0.04400124 0.13838333 0.0085389959 1.7411534e-038
0.04595235 0.13838109 0.0085031977 1.7226068e-038
0.047996353 0.13771246 0.0092404922 1.7410459e-038
0.049949888 0.13771006 0.0092044491 1.6948044e-038
0.051706314 0.13904023 0.0076221908 1.7226077e-038
0.053350549 0.1410367 0.0052669412 1.7324365e-038
0.055290051 0.14103413 0.0052309115 1.8802364e-038
0.05733601 0.14036514 0.0059677088 1.8530114e-038
0.059387214 0.13969609 0.0067043109 1.8716662e-038
0.061219607 0.14035964 0.0058951052 1.8625189e-038
0.063046418 0.14102313 0.0050859181 1.8348245e-038
0.064867623 0.14168656 0.0042767283 1.8255683e-038
0.066923551 0.14101723 0.005012909 1.6409984e-038
0.06873899 0.14168057 0.0042036939 1.6401742e-038
0.071051173 0.1396784 0.0064847674 1.0494752e-038
0.072994538 0.13967523 0.0064478959 1.0861747e-038
0.074937716 0.13967201 0.0064109778 1.8705227e-038
0.076880686 0.13966876 0.0063739931 1.9260922e-038
0.078550637 0.14099818 0.0047922027 1.8431887e-038
0.080626927 0.14032841 0.0055274619 1.8249659e-038
0.082282931 0.14165778 0.0039458293 1.8707398e-038
0.084506124 0.14032152 0.0054531354 1.8614483e-038
0.086445414 0.14031801 0.0054158806 1.879852e-038
0.088534482 0.13964805 0.0061506643 1.9074379e-038
0.090323374 0.14031082 0.0053411722 1.7138613e-038
0.092262067 0.14030716 0.0053037391 1.6585055e-038
0.094358645 0.13963705 0.006038209 1.6123714e-038
0.0038338723 0.11852979 0.02934585 2.9513798e-039
0.0053971545 0.12788002 0.018501395 1.7528772e-039
0.0073523112 0.12854727 0.017694941 1.8465036e-039
0.0092632873 0.12988235 0.016116401 1.1343702e-038
0.011204747 0.13054943 0.015309937 1.6690312e-038
0.013273186 0.12921266 0.016819179 8.0217681e-039
0.015352415 0.12787578 0.01832819 6.8224906e-039
0.017392861 0.12720676 0.019065019 4.7923763e-039
0.019281778 0.12854141 0.017486382 6.1723932e-039
0.021104723 0.13054395 0.015136049 9.3019846e-039
0.022969035 0.13187845 0.013557615 9.8529905e-039
0.024882833 0.13254499 0.012750852 1.2800712e-038
0.026854243 0.13254349 0.012715692 1.4090364e-038
0.028759714 0.13320985 0.011908911 1.5381445e-038
0.030591028 0.13454404 0.010330628 1.5750221e-038
0.032411411 0.13587822 0.0087524205 1.6673252e-038
0.034516871 0.13454051 0.010259893 1.6029306e-038
0.036556326 0.13387069 0.010995707 1.6675383e-038
0.038521662 0.13386872 0.010960049 1.7228216e-038
0.040322542 0.13520257 0.0093818195 1.7690272e-038
0.042282183 0.13520047 0.0093460744 1.7230369e-038
0.044066496 0.13653421 0.0077679041 1.7322929e-038
0.045930125 0.13719994 0.0069610099 1.7968284e-038
0.048067249 0.13586171 0.0084671723 1.7415469e-038
0.0500236 0.13585931 0.0084311012 1.6861938e-038
0.051782917 0.13719277 0.006853058 1.7506956e-038
0.053632405 0.13785821 0.0060460442 1.6493885e-038
0.055580132 0.13785562 0.0060098581 1.787394e-038
0.057634305 0.13718501 0.0067443592 1.7971179e-038
0.059584431 0.13718228 0.0067079617 1.8714861e-038
0.061534408 0.13717949 0.0066714725 1.8624466e-038
0.063369475 0.13784461 0.0058642761 1.9451346e-038
0.065433808 0.13717371 0.00659825 1.8159888e-038
0.06738323 0.13717073 0.0065615345 1.5667386e-038
0.069455333 0.13649967 0.0072951904 9.7636578e-039
0.071658239 0.13516054 0.0087991478 1.086536e-038
0.073486969 0.1358254 0.0079916213 1.9165855e-038
0.075179107 0.13715822 0.0064138826 1.6676937e-038
0.077127613 0.13715494 0.0063767806 1.8615206e-038
0.078803092 0.1384877 0.00479917 1.640323e-038
0.081024006 0.13714823 0.0063023982 1.6864927e-038
0.08268825 0.1384809 0.0047248583 1.7325908e-038
0.085064128 0.13647328 0.0069978209 1.6034449e-038
0.08701434 0.13646977 0.0069603822 1.8246424e-038
0.089114286 0.13579813 0.007692806 1.760033e-038
0.090761475 0.1371306 0.0061153728 1.6216322e-038
0.092552982 0.13779497 0.0053079412 1.7229748e-038
0.094813094 0.13645516 0.0068099583 1.5661681e-038
0.0026962368 0.095207356 0.053189799 1.4846341e-038
0.0038993936 0.11529363 0.030053273 7.9313437e-039
0.0055046985 0.12399734 0.020008678 1.5684888e-039
0.0074709044 0.12466619 0.019204153 1.5699181e-039
0.0093929367 0.12600459 0.017629744 5.0733338e-039
0.011304067 0.12734284 0.016055413 9.682381e-039
0.013336589 0.12667236 0.016790463 1.244751e-038
0.01546816 0.12466263 0.01906479 4.8881747e-039
0.017467296 0.12466153 0.019029679 4.5186621e-039
0.019361872 0.1259995 0.017455194 6.1723918e-039
0.021190478 0.12800696 0.015111203 8.474033e-039
0.022945043 0.13068388 0.011997933 1.3540094e-038
0.024919398 0.13068248 0.01196284 1.4920844e-038
0.026830539 0.13135058 0.01115816 1.4736446e-038
0.028867865 0.1306794 0.011892313 1.6119728e-038
0.030704807 0.13201693 0.010318206 1.5659812e-038
0.032602061 0.1326848 0.0095135346 1.7227496e-038
0.034715731 0.13134381 0.011016503 1.7783161e-038
0.036763445 0.13067234 0.0117501 1.7876435e-038
0.038657621 0.13133998 0.010945119 1.7600579e-038
0.040464107 0.13267714 0.0093711112 1.7877526e-038
0.042344451 0.13334459 0.0085662007 1.7509464e-038
0.044306792 0.13334242 0.0085303104 1.8062636e-038
0.046268988 0.13334019 0.0084943576 1.8062636e-038
0.048417028 0.13199866 0.0099960342 1.8339225e-038
0.050288636 0.13266587 0.0091909487 1.8430347e-038
0.05215469 0.133333 0.0083858296 1.7599513e-038
0.053914022 0.13466974 0.0068119918 1.7508036e-038
0.055973865 0.13399749 0.0075443895 1.6863387e-038
0.058038965 0.13332522 0.0082765454 1.7598074e-038
0.060000055 0.13332248 0.0082399473 1.7142128e-038
0.061848983 0.1339893 0.0074347379 1.8619064e-038
0.063807026 0.13398644 0.0073980177 1.8620149e-038
0.065647468 0.13465318 0.0065927645 1.7328331e-038
0.067602426 0.1346502 0.0065559437 1.6496074e-038
0.069557197 0.13464716 0.0065190466 8.8373897e-039
0.071637318 0.13397439 0.0072503961 1.9628266e-038
0.073466167 0.13464092 0.0064450484 1.5294713e-038
0.075551324 0.13396801 0.007176151 1.7230827e-038
0.077508047 0.13396472 0.0071389121 1.833754e-038
0.079328179 0.1346311 0.0063334997 1.7324109e-038
0.081420876 0.13395803 0.0070642531 1.7786166e-038
0.083235182 0.13462429 0.0062587997 1.7232992e-038
0.085477389 0.13328144 0.0077572479 1.6494707e-038
0.087435804 0.13327788 0.0077196183 1.7784365e-038
0.089394026 0.13327432 0.0076819789 1.7415585e-038
0.091046743 0.13461009 0.0061086775 1.5940099e-038
0.092843771 0.13527611 0.0053033093 1.833754e-038
0.095109314 0.13393296 0.006800978 1.7967665e-038
0.0026688697 0.093925454 0.051516123 1.4753781e-038
0.0039342009 0.11271866 0.029979659 7.6558176e-039
0.0055455402 0.12144371 0.019962862 1.5692091e-039
0.0075532757 0.12144303 0.019928146 1.6610347e-039
0.009445034 0.12345586 0.017590204 3.3223413e-039
0.011320432 0.12546864 0.015252392 8.0228765e-039
0.013311693 0.12546772 0.015217648 1.2357119e-038
0.015536886 0.12211067 0.01902069 4.8885348e-039
0.017541597 0.12210954 0.018985456 3.7818173e-039
0.019546242 0.12210838 0.018950155 7.2758639e-039
0.021385986 0.12412078 0.01661244 1.2802532e-038
0.023266979 0.12546183 0.015042286 1.4369104e-038
0.025197409 0.12613162 0.014239583 1.5197421e-038
0.027059192 0.12747261 0.012669555 1.6212635e-038
0.028975837 0.12814224 0.011866862 1.6397377e-038
0.030818425 0.12948303 0.010297011 1.741404e-038
0.03279252 0.1294813 0.010261506 1.7876446e-038
0.034840439 0.12880826 0.010992979 1.7786408e-038
0.036816996 0.12880638 0.010957244 1.843142e-038
0.038872812 0.12813321 0.01168838 1.7603809e-038
0.04068765 0.12947363 0.010118507 1.8249547e-038
0.042576276 0.13014279 0.0093156006 1.8250252e-038
0.044546872 0.1301406 0.009279564 1.8066938e-038
0.046517342 0.13013837 0.009243452 1.8159134e-038
0.048487656 0.13013604 0.0092072301 1.8250608e-038
0.050362129 0.1308049 0.0084042288 1.8342452e-038
0.05223104 0.13147369 0.0076012355 1.8249179e-038
0.054296553 0.13079992 0.0083314432 1.8341024e-038
0.056367323 0.13012606 0.0090614622 1.7601661e-038
0.058336828 0.13012339 0.00902481 1.8154482e-038
0.06019694 0.13079193 0.0082216412 1.7140698e-038
0.06216339 0.13078913 0.0081848688 1.723183e-038
0.063900337 0.1321288 0.0066153472 1.7692451e-038
0.065978378 0.13145462 0.0073448 1.5665225e-038
0.06782148 0.13212292 0.0065416135 1.3171303e-038
0.06965898 0.13279116 0.0057384418 1.8058772e-038
0.071490854 0.13345939 0.0049352646 1.6770922e-038
0.07344535 0.13345625 0.0048982287 1.8615203e-038
0.075530574 0.13278171 0.0056272047 1.8430812e-038
0.077621028 0.13210715 0.0063559762 1.806275e-038
0.079716675 0.13143253 0.007084555 1.6403949e-038
0.081678495 0.13142914 0.0070470842 1.8338616e-038
0.083498351 0.13209704 0.0062437514 1.6956402e-038
0.085745983 0.13075089 0.0077377474 1.7415585e-038
0.087562717 0.13141869 0.0069343378 1.8245345e-038
0.089523718 0.1314151 0.006896636 1.4741911e-038
0.091331892 0.13208282 0.0060932692 1.6954962e-038
0.09328974 0.13207914 0.0060554878 1.8705957e-038
0.095721439 0.1300614 0.0083142072 1.8525159e-038
0.0026969663 0.091297619 0.051373698 1.4476484e-038
0.0040297783 0.10879117 0.031428646 7.1948394e-039
0.0056525934 0.1175376 0.021439558 2.396453e-039
0.0075995461 0.1188826 0.019873453 1.5691964e-039
0.0094583677 0.12157325 0.016776258 1.1343699e-038
0.011378041 0.12291814 0.015210344 1.3831187e-038
0.013462973 0.12157146 0.016706478 6.6406497e-039
0.015558707 0.12022475 0.018202279 3.8743871e-039
0.017566295 0.12022368 0.018167051 5.2573019e-039
0.019469403 0.12156818 0.016601028 1.1882741e-038
0.021416467 0.12223978 0.015800383 1.3721594e-038
0.023415634 0.12223843 0.015764974 1.464425e-038
0.025414703 0.12223702 0.015729442 1.6119728e-038
0.027287573 0.12358127 0.01416351 1.6859434e-038
0.029149463 0.12492541 0.012597713 1.7137098e-038
0.031068878 0.12559666 0.01179699 1.723072e-038
0.032982748 0.12626781 0.010996323 1.7877526e-038
0.03496499 0.12626599 0.010960576 1.787932e-038
0.036947105 0.12626411 0.010924738 1.8248457e-038
0.038929101 0.12626216 0.010888801 1.7696728e-038
0.040828906 0.12693301 0.010087988 1.7789644e-038
0.042807899 0.12693089 0.010051899 1.760596e-038
0.044874258 0.12625585 0.010780437 1.7884332e-038
0.0469459 0.12558071 0.011508753 1.7883979e-038
0.048836973 0.12625128 0.010707717 1.7515551e-038
0.050626829 0.12759463 0.0091421101 1.7975463e-038
0.052602395 0.12759219 0.0091056461 1.7881839e-038
0.054577772 0.12758966 0.0090690739 1.8526131e-038
0.056552976 0.12758707 0.0090324115 1.8525412e-038
0.058634512 0.12691149 0.0097600129 1.8248475e-038
0.060502887 0.12758167 0.0089588426 1.8430358e-038
0.062365673 0.12825179 0.008157691 1.7692438e-038
0.064337477 0.12824893 0.0081207538 1.6861972e-038
0.06630908 0.12824601 0.0080837235 1.6492837e-038
0.068160444 0.128916 0.0072825006 1.2252204e-038
0.069883443 0.13025881 0.0057173166 1.944423e-038
0.071720883 0.13092867 0.0049162339 1.5295084e-038
0.073552705 0.13159844 0.0041151745 1.8246424e-038
0.075640701 0.1309223 0.0048419214 1.8708475e-038
0.077733912 0.1302461 0.0055685053 1.7418459e-038
0.079968661 0.12889689 0.0070586815 1.5942971e-038
0.081935987 0.12889351 0.0070211375 1.8338616e-038
0.084044844 0.12821707 0.0077472292 1.8338616e-038
0.086014464 0.1282136 0.0077095125 1.7416663e-038
0.087836713 0.12888306 0.0069081173 1.833754e-038
0.089803189 0.1288795 0.0068703392 1.5940454e-038
0.091922037 0.12820286 0.0075959815 1.6770568e-038
0.093890809 0.12819918 0.0075580198 1.8705957e-038
0.0027803339 0.087314077 0.052749589 1.4569035e-038
0.0040338067 0.1068738 0.030569468 5.7193604e-039
0.0056267916 0.1163161 0.019844741 1.8432876e-039
0.0075739473 0.1176644 0.018282928 1.66282e-039
0.0094716186 0.11968715 0.015957722 1.2082699e-038
0.011435516 0.12036078 0.015159483 1.3646073e-038
0.013569974 0.1183364 0.017414525 5.4406646e-039
0.015627181 0.11766086 0.018142663 4.79417e-039
0.017541436 0.11900877 0.016580813 9.4896338e-039
0.019444747 0.12035658 0.015019112 1.3538997e-038
0.021446854 0.12035535 0.014983768 1.4643541e-038
0.023564067 0.119005 0.016474467 1.620942e-038
0.025571426 0.11900359 0.016438795 1.7227496e-038
0.027452653 0.1203511 0.014877063 1.667575e-038
0.029322872 0.12169857 0.013315372 1.6771528e-038
0.031182159 0.12304593 0.011753809 1.741798e-038
0.033030424 0.12439326 0.010192328 1.7971154e-038
0.035015497 0.12439146 0.010156521 1.7788558e-038
0.036923874 0.12506409 0.0093579181 1.8249536e-038
0.039064631 0.12371308 0.01084742 1.7420849e-038
0.040970005 0.12438562 0.010048619 1.7790703e-038
0.043124069 0.12303444 0.011537682 1.7791784e-038
0.04493897 0.12438134 0.009976184 1.7699585e-038
0.047013428 0.12370453 0.010702372 1.7883979e-038
0.048907354 0.1243768 0.0099034077 1.7607399e-038
0.051082529 0.12302529 0.011391699 1.8068376e-038
0.052973438 0.12369736 0.010592625 1.779037e-038
0.054858748 0.12436941 0.0097935311 1.7790726e-038
0.05673847 0.12504135 0.0089944853 1.7698884e-038
0.058825511 0.12436416 0.0097198561 1.7513777e-038
0.060590286 0.12571052 0.0081585972 1.7510553e-038
0.062567793 0.12570773 0.0081216516 1.7970102e-038
0.06465973 0.12503032 0.008846662 1.750805e-038
0.06663958 0.1250274 0.0088095088 1.6400639e-038
0.068499207 0.12569898 0.0080103362 1.3538623e-038
0.070230506 0.12704509 0.0064492971 1.7504887e-038
0.072201662 0.12704201 0.0064120693 1.5293284e-038
0.073916286 0.12838805 0.004851141 1.889179e-038
0.076143347 0.12703565 0.0063373763 1.8430812e-038
0.078247465 0.12635781 0.0070616268 1.6496502e-038
0.08049307 0.12500529 0.0085473135 1.5850412e-038
0.082332328 0.12567651 0.0077480036 1.8062028e-038
0.084307663 0.12567309 0.007710251 1.6586898e-038
0.086427197 0.12499502 0.0084339296 1.6493628e-038
0.088257693 0.12566608 0.0076345634 1.8336817e-038
0.090082534 0.12633711 0.0068352525 1.5756063e-038
0.092054307 0.12633349 0.0067973258 1.7231547e-038
0.094025858 0.12632982 0.0067593395 1.7510295e-038
0.0027250578 0.086697824 0.050300762 1.4476484e-038
0.0040377537 0.10495298 0.029705741 4.0587741e-039
0.0057002744 0.113066 0.020533798 1.8432904e-039
0.0076558003 0.11441762 0.018976104 1.2929739e-039
0.0095618796 0.11644525 0.016657243 5.2580936e-039
0.011534099 0.11712057 0.015860964 9.4079634e-039
0.01367673 0.11509122 0.018109467 9.5894651e-039
0.015602123 0.11644249 0.016551893 4.6958464e-039
0.017565992 0.11711756 0.015755439 1.1972782e-038
0.019472217 0.11846866 0.014197975 1.4919772e-038
0.021477174 0.11846741 0.014162578 1.5657322e-038
0.023539616 0.11778996 0.014888024 1.6580707e-038
0.025607372 0.11711239 0.015613249 1.6675753e-038
0.027554508 0.11778704 0.014816594 1.7322196e-038
0.029430358 0.11913777 0.013259165 1.7047759e-038
0.031363692 0.11981227 0.012462554 1.7510176e-038
0.033291459 0.12048674 0.011665899 1.7695642e-038
0.035139814 0.12183727 0.010108651 1.7880753e-038
0.037130326 0.12183539 0.010072684 1.8158414e-038
0.039200008 0.12115728 0.010797165 1.7698513e-038
0.041274976 0.12047911 0.01152147 1.7514474e-038
0.043355245 0.1198008 0.01224561 1.7883976e-038
0.045265906 0.12047484 0.011448664 1.7607392e-038
0.047171004 0.12114876 0.010651783 1.8068016e-038
0.049163379 0.12114645 0.010615205 1.7238617e-038
0.051346764 0.11979166 0.012099074 1.7699962e-038
0.053344242 0.11978921 0.012062216 1.7423375e-038
0.055139545 0.12113907 0.01050492 1.7884e-038
0.056923833 0.12248886 0.0089478046 1.806839e-038
0.059016377 0.12181 0.0096709225 1.751378e-038
0.061005034 0.12180728 0.0096338773 1.7881486e-038
0.062769793 0.12315693 0.0080768056 1.8247043e-038
0.064867228 0.12247784 0.0087996274 1.7969736e-038
0.066969879 0.12179873 0.0095222322 1.7688134e-038
0.068957776 0.12179575 0.009484861 1.1970574e-038
0.070822783 0.12246893 0.0086876657 1.4739016e-038
0.07280758 0.12246583 0.0086502014 1.7138273e-038
0.074664041 0.12313894 0.0078529771 1.7140796e-038
0.076776572 0.12245946 0.0085750371 1.8338616e-038
0.078760751 0.12245619 0.0085373316 1.741738e-038
0.080880992 0.12177663 0.0092590731 1.6403226e-038
0.08272849 0.12244949 0.0084617725 1.8246421e-038
0.084712036 0.12244607 0.008423876 1.7599975e-038
0.086839758 0.12176634 0.0091452636 1.7599975e-038
0.088825576 0.12176279 0.009107206 1.8060232e-038
0.090511553 0.12311178 0.0075505795 1.621632e-038
0.092644051 0.12243185 0.0082717352 1.7784002e-038
0.094316028 0.12378076 0.0067152702 1.7602492e-038
0.0026145477 0.087440163 0.04633728 1.3831114e-038
0.0040112473 0.10370639 0.028078184 2.5829406e-039
0.0056743436 0.11183916 0.01893202 2.0276789e-039
0.0077374657 0.11116071 0.019656159 1.0153262e-039
0.0096519198 0.11319333 0.017343571 3.137241e-039
0.011673673 0.11319249 0.017308418 7.7491637e-039
0.013695406 0.11319156 0.017273162 1.2540789e-038
