# .PCD v0.7 - Point Cloud Data file format
VERSION 0.7
FIELDS x y z rgb
SIZE 4 4 4 4
TYPE F F F F
COUNT 1 1 1 1
WIDTH 957
HEIGHT 1
VIEWPOINT 0 0 0 1 0 0 0
POINTS 957
DATA ascii
0.088141665 0.039104272 0.076747715 1.6496461e-038
0.089975521 0.039834265 0.076117858 1.5481587e-038
0.091509305 0.041296851 0.074789375 1.5941115e-038
0.093032353 0.04275953 0.073460564 1.4924074e-038
0.093944423 0.045687344 0.070734069 1.4274756e-038
0.094532318 0.049347762 0.067308143 1.3621849e-038
0.094787844 0.053740803 0.063182555 1.2148874e-038
0.095011197 0.058133934 0.059055977 1.1876606e-038
0.096134871 0.060329508 0.057025578 1.9260528e-038
0.097242549 0.062525168 0.054994732 1.9076857e-038
0.098966606 0.063255727 0.05436191 1.8615865e-038
0.10068548 0.063986361 0.053729005 1.805982e-038
0.1027207 0.063984498 0.053795401 1.8428577e-038
0.10475607 0.063982695 0.053861871 1.8150907e-038
0.10613764 0.065446109 0.052529253 1.8517878e-038
0.10849775 0.064711824 0.05329543 1.7502647e-038
0.1105311 0.064710215 0.053362079 1.7589124e-038
0.1132348 0.063243523 0.054828521 1.7310386e-038
0.1149362 0.063974604 0.054195605 1.399064e-038
0.11697298 0.063973203 0.054262649 9.7640543e-039
0.11901005 0.063971862 0.054329786 1.9728375e-038
0.12104744 0.063970581 0.054397017 1.9450701e-038
0.12308516 0.063969374 0.054464363 1.9266307e-038
0.1251232 0.063968256 0.054531828 1.9358504e-038
0.12680766 0.064699784 0.053898931 1.9542895e-038
0.12813053 0.066164032 0.052565385 1.9174837e-038
0.12980232 0.066895723 0.051932275 1.9450701e-038
0.13219322 0.066162333 0.052700572 1.9265226e-038
0.13495475 0.064696401 0.054170042 1.954037e-038
0.13699265 0.064695776 0.054238133 1.8525487e-038
0.13903104 0.064695224 0.054306358 1.8613362e-038
0.14106998 0.064694762 0.054374713 1.8149867e-038
0.14348492 0.063961804 0.055144377 1.3163027e-038
0.14590593 0.063228935 0.055914372 1.2609866e-038
0.14909476 0.061030943 0.058087468 1.1227664e-038
0.15230045 0.058833089 0.060261209 9.0211069e-039
0.15436392 0.058833096 0.060331009 5.7993143e-039
0.15720621 0.057367984 0.06180428 4.698366e-039
0.15966824 0.056635607 0.062576294 3.9672833e-039
0.048618887 0.00043411367 0.10881554 1.732477e-038
0.050430432 0.0018989909 0.10749945 1.732405e-038
0.052691277 0.001895709 0.10757163 1.5202474e-038
0.054719012 0.0026265401 0.10694943 8.7452291e-039
0.056741104 0.0033574365 0.10632703 9.5753555e-039
0.058281127 0.0055565089 0.10431539 1.4920495e-038
0.059804708 0.007755667 0.10230318 1.1963396e-038
0.061555602 0.0092207156 0.10098526 1.3154424e-038
0.063295476 0.010685837 0.099666968 1.4076385e-038
0.065024436 0.012150951 0.098348394 1.7046097e-038
0.066742375 0.013616148 0.097029462 1.9816284e-038
0.068703815 0.014347214 0.096405327 1.8067807e-038
0.07014551 0.016546564 0.094390705 1.9817725e-038
0.071570888 0.018746013 0.092375576 9.2001046e-039
0.073504962 0.019477192 0.091750652 1.6216336e-038
0.074903145 0.021676727 0.089734711 1.5665323e-038
0.077088691 0.021673847 0.089804858 1.3912884e-038
0.078462414 0.023873478 0.087788209 2.0922988e-038
0.080093183 0.02533897 0.086466804 1.2050957e-038
0.080885209 0.029007003 0.083057746 1.3152259e-038
0.082207561 0.031206798 0.081039578 1.3244457e-038
0.084076382 0.031938292 0.080412865 1.250689e-038
0.085655726 0.033403981 0.079089984 1.7592739e-038
0.086937547 0.035603952 0.077070668 8.6522935e-039
0.088203207 0.037803967 0.075050876 1.262318e-038
0.090036944 0.038535662 0.074423239 1.5850725e-038
0.092160031 0.038533229 0.074491866 1.5846759e-038
0.093390755 0.040733423 0.072471119 1.5382901e-038
0.094605312 0.042933628 0.070449933 1.3902742e-038
0.096106678 0.044399764 0.069124907 1.36197e-038
0.096680664 0.04806852 0.065709412 1.2883575e-038
0.097536065 0.051003169 0.06298992 1.1963778e-038
0.09805911 0.054672074 0.059572898 1.103822e-038
0.098555349 0.058341067 0.056155074 1.7214606e-038
0.09934108 0.06127594 0.053433523 2.0639855e-038
0.10010544 0.064210892 0.050711356 1.8703746e-038
0.10181346 0.064943254 0.050080348 1.7599182e-038
0.10416508 0.064207286 0.050843947 1.8152356e-038
0.1061952 0.064205572 0.050910369 1.8518966e-038
0.10855526 0.063469663 0.051674426 1.8148033e-038
0.11025599 0.064202324 0.051043458 1.7316826e-038
0.11228674 0.064200804 0.051110141 1.5841696e-038
0.11431777 0.064199343 0.051176924 1.1133647e-038
0.11634902 0.064197943 0.051243797 1.0397538e-038
0.11872387 0.063462362 0.05200877 1.8521545e-038
0.12041247 0.064195365 0.05137784 1.990952e-038
0.12279334 0.063459918 0.052143209 1.5761425e-038
0.12482855 0.0634588 0.052210577 1.9635091e-038
0.12651011 0.064192027 0.051579706 1.9359228e-038
0.12782995 0.065659508 0.050250396 1.9267396e-038
0.12985826 0.065658629 0.050317839 1.9635458e-038
0.13188702 0.065657824 0.050385408 1.9080489e-038
0.13391621 0.065657109 0.050453089 1.8987935e-038
0.13631338 0.064922243 0.051219665 1.9355274e-038
0.13871647 0.064187452 0.051986545 1.7694308e-038
0.14075252 0.064186975 0.052054785 1.8800285e-038
0.14278911 0.064186603 0.052123163 1.7871833e-038
0.14520463 0.06345202 0.052890845 1.7684922e-038
0.1476261 0.062717587 0.053658802 1.3348127e-038
0.15120478 0.059780505 0.056525066 8.8352751e-039
0.15364641 0.059046257 0.057293952 7.4570224e-039
0.15609412 0.058312099 0.058063164 6.9045773e-039
0.15776429 0.059046518 0.057433557 5.2508195e-039
0.16021883 0.058312561 0.058203269 4.5154195e-039
0.05478524 0.0012458283 0.1051477 1.5478736e-038
0.056571614 0.0027141888 0.10383521 1.3727739e-038
0.058108661 0.0049182819 0.10183002 1.5385422e-038
0.05987031 0.0063867047 0.10051677 1.7041336e-038
0.06162101 0.0078551173 0.099203244 1.4816811e-038
0.063853532 0.0078520365 0.099274725 1.2970395e-038
0.065587655 0.0093205478 0.097960666 1.2229963e-038
0.067058995 0.011524819 0.095953479 1.232539e-038
0.069022998 0.012257641 0.095331624 1.5390887e-038
0.070467129 0.014461994 0.093323633 1.4561486e-038
0.072154753 0.015930662 0.092008203 1.9444258e-038
0.073568977 0.018135104 0.089999311 1.8806092e-038
0.075232126 0.019603861 0.088683173 1.4285268e-038
0.077152371 0.020336829 0.088060126 1.9355306e-038
0.078796461 0.021805616 0.086743489 6.9020521e-039
0.080429673 0.023274504 0.085426509 1.3334854e-038
0.081499971 0.026215021 0.082721964 1.3703271e-038
0.083106153 0.027683958 0.081404231 1.3612163e-038
0.084982857 0.028417144 0.080779999 1.3244457e-038
0.086285986 0.030622035 0.078767836 1.186655e-038
0.087572888 0.032826979 0.076755188 1.620766e-038
0.088843644 0.035031937 0.074742123 9.9448344e-039
0.090390407 0.03650118 0.073422678 1.5386501e-038
0.092516124 0.036498789 0.073491454 1.5477609e-038
0.094046772 0.037968092 0.072171651 1.5936428e-038
0.095266409 0.040173322 0.070157103 1.4913296e-038
0.09707588 0.040906917 0.069531128 1.4172859e-038
0.098268725 0.043112267 0.067515843 9.566687e-039
0.099753797 0.044581804 0.066194803 6.4385419e-039
0.099984199 0.048994806 0.062094428 1.0580501e-038
0.10049613 0.052672084 0.058687873 1.1953719e-038
0.10066482 0.057085242 0.054585613 1.2975064e-038
0.10112048 0.06076264 0.051177405 1.1872315e-038
0.10219286 0.062968418 0.049158607 1.2891481e-038
0.10422269 0.062966675 0.049224984 1.5936089e-038
0.10625272 0.062964991 0.049291428 1.7228965e-038
0.10828286 0.062963367 0.049357962 1.8516817e-038
0.10998072 0.063697651 0.048729122 1.8516447e-038
0.1120087 0.063696146 0.048795741 1.7685607e-038
0.11403693 0.063694715 0.048862457 1.7035207e-038
0.11640596 0.062957481 0.049624987 1.6940509e-038
0.11843744 0.062956169 0.049691975 1.4729987e-038
0.12046921 0.062954918 0.049759068 1.990736e-038
0.1225013 0.062953755 0.049826257 1.1886694e-038
0.12453371 0.062952638 0.049893551 9.2177035e-039
0.12585831 0.064423352 0.048568618 1.898972e-038
0.12752932 0.065158278 0.047939688 1.926703e-038
0.1291953 0.065893278 0.047310699 1.9358508e-038
0.13121852 0.065892473 0.047378078 1.9541823e-038
0.13360707 0.065155864 0.048142098 1.4931683e-038
0.13600145 0.064419359 0.048906427 7.0010721e-039
0.13840179 0.063682914 0.049671058 7.1843858e-039
0.14043498 0.063682437 0.049739186 1.4468551e-038
0.14209309 0.064417928 0.049110573 1.8247459e-038
0.14374633 0.065153494 0.048481897 1.8430047e-038
0.14577582 0.065153286 0.048550252 1.4180049e-038
0.1485735 0.063681394 0.050013065 8.5539953e-039
0.15099612 0.06294547 0.050779134 7.176474e-039
0.15303561 0.06294553 0.050848179 8.9278253e-039
0.15585963 0.061473887 0.052312292 9.0185874e-039
0.159879 0.057794701 0.055869512 6.8112999e-039
0.16233693 0.057059173 0.056637283 4.7912791e-039
0.16480097 0.056323748 0.05740539 5.7143186e-039
0.056637533 0.0013367515 0.10203774 1.6310618e-038
0.058174312 0.0035458561 0.10003909 1.658575e-038
0.060176879 0.0042802449 0.099420592 1.6493545e-038
0.061930113 0.0057520177 0.098111533 1.491869e-038
0.063918784 0.0064864196 0.09749268 1.2148872e-038
0.065901898 0.0072208401 0.096873656 1.3426697e-038
0.067879438 0.0079553369 0.096254453 1.416318e-038
0.069342263 0.010164652 0.09425357 1.5084415e-038
0.071046032 0.011636628 0.092943013 1.3148309e-038
0.072478935 0.013846034 0.090941235 2.0262854e-038
0.074158177 0.015318096 0.089629963 1.1696225e-038
0.075826511 0.016790155 0.088318408 1.6224976e-038
0.077752009 0.017524865 0.087697722 1.8346197e-038
0.079401277 0.018997006 0.086385638 1.5298698e-038
0.080766223 0.021206673 0.084381804 1.0128189e-038
0.082114972 0.023416344 0.082377538 1.1324926e-038
0.083447516 0.025626127 0.080372751 1.3061876e-038
0.085045308 0.027098462 0.079059184 1.3517808e-038
0.086632274 0.028570883 0.077745251 1.3701113e-038
0.087921605 0.030780774 0.075739257 1.3331609e-038
0.08919473 0.032990757 0.073732734 1.6013904e-038
0.090451732 0.035200812 0.071725756 1.6483488e-038
0.092282407 0.035935935 0.0711025 1.6671825e-038
0.093810171 0.037408583 0.069786966 1.5562958e-038
0.095627464 0.038143858 0.06916336 1.3716185e-038
0.09713643 0.039616611 0.067847326 1.3714749e-038
0.098940372 0.040351946 0.067223445 1.0491163e-038
0.100739 0.041087333 0.066599444 9.8490389e-039
0.10159907 0.044035263 0.063897476 1.0584454e-038
0.10212397 0.047720756 0.060502186 1.2874231e-038
0.10198914 0.052881345 0.055720478 1.3607843e-038
0.10245509 0.056566995 0.052323397 1.4253568e-038
0.10289422 0.060252722 0.048925515 1.2975414e-038
0.10428024 0.061726037 0.047605965 1.7311829e-038
0.10565569 0.063199371 0.046286177 1.4825041e-038
0.10768038 0.063197777 0.046352565 1.8424973e-038
0.10937269 0.063933745 0.045725726 1.842425e-038
0.11105984 0.064669773 0.045098804 1.8330977e-038
0.11341786 0.063930854 0.045858763 1.8141192e-038
0.11578155 0.063191995 0.046618994 1.7585867e-038
0.1181509 0.062453199 0.04737949 1.6571725e-038
0.12017984 0.06245197 0.047446508 1.5201415e-038
0.12186036 0.063188329 0.046819784 2.0829667e-038
0.12423876 0.062449727 0.047580842 8.294664e-039
0.12591453 0.063186228 0.04695414 1.8620573e-038
0.12794217 0.063185275 0.047021475 1.9635447e-038
0.12925112 0.064659432 0.04570052 1.9266664e-038
0.13127421 0.064658642 0.045767896 1.8989356e-038
0.1336627 0.063920394 0.046529774 1.8712769e-038
0.13568941 0.063919753 0.046597473 1.8248583e-038
0.13808693 0.063181669 0.047359854 1.4284174e-038
0.1397443 0.06391871 0.046733234 1.078109e-038
0.14139675 0.064655825 0.046106566 1.8525132e-038
0.14304435 0.065393075 0.045479789 1.953856e-038
0.14544952 0.064655274 0.046242908 1.9072895e-038
0.14786062 0.063917607 0.047006294 1.6301997e-038
0.1495046 0.06465508 0.046379782 1.3535774e-038
0.15153313 0.06465511 0.046448432 1.215176e-038
0.15356237 0.064655244 0.046517227 1.0492627e-038
0.15717098 0.06170537 0.049367696 9.3884461e-039
0.16080202 0.058755543 0.052219078 6.5361451e-039
0.16325518 0.058018398 0.05298467 5.1593399e-039
0.16490895 0.058756474 0.05235919 4.9785528e-039
0.05871683 0.00069526024 0.099624276 1.6215539e-038
0.060483515 0.0021703597 0.098320022 1.6492837e-038
0.062239207 0.003645543 0.097015411 1.4825776e-038
0.064230479 0.0043816548 0.096398883 1.4730706e-038
0.065966934 0.0058568511 0.095093742 1.2418648e-038
0.06844826 0.0051149018 0.095853895 1.2968944e-038
0.069916174 0.0073292553 0.093859673 1.4347924e-038
0.071625158 0.0088045523 0.092553735 1.4438324e-038
0.072543077 0.01249714 0.089181006 1.462524e-038
0.074222155 0.013972566 0.087874115 1.0758786e-038
0.075890258 0.01544798 0.08656694 1.9078721e-038
0.07781563 0.016184404 0.085948497 1.419307e-038
0.07973548 0.01692082 0.085329935 2.0185787e-038
0.081102878 0.01913544 0.083332762 2.0277983e-038
0.082730182 0.02061107 0.082024395 2.0457331e-038
0.084067799 0.022825791 0.080026336 1.2416512e-038
0.085389204 0.025040608 0.07802777 1.3794029e-038
0.086694404 0.027255479 0.076028712 1.4620188e-038
0.088270359 0.028731264 0.074718907 1.4436517e-038
0.08983551 0.030207131 0.073408745 1.5174803e-038
0.091097608 0.032422122 0.071408495 1.6837915e-038
0.0926385 0.033898097 0.070097655 1.7496575e-038
0.094466411 0.034634966 0.069476582 1.50984e-038
0.095988579 0.036111001 0.068165287 1.4636707e-038
0.097499959 0.037587132 0.066853642 1.3899145e-038
0.099612243 0.037585031 0.066922337 1.3253073e-038
0.10110766 0.039061237 0.065610357 1.3160524e-038
0.10228115 0.04127666 0.063607574 1.2417927e-038
0.10312483 0.044231284 0.060913794 1.3425605e-038
0.10426362 0.046446797 0.058910049 1.4343964e-038
0.10538641 0.048662424 0.056905817 1.4710225e-038
0.1055274 0.053095534 0.052828696 1.4986455e-038
0.10563622 0.05752876 0.048750538 1.8126136e-038
0.10636756 0.060483743 0.046053428 1.934227e-038
0.10740757 0.062699601 0.044046801 1.8148033e-038
0.1094297 0.062698096 0.044113219 1.8334211e-038
0.11111666 0.063435793 0.043488465 1.7503374e-038
0.1131366 0.063434407 0.043554969 1.7776008e-038
0.11549757 0.062693924 0.044312984 1.7498699e-038
0.1175207 0.062692657 0.044379741 1.6389129e-038
0.11989032 0.061952297 0.045138214 1.5282076e-038
0.12156793 0.062690318 0.044513561 1.8701235e-038
0.12359202 0.062689245 0.044580609 1.9357409e-038
0.12490799 0.064166605 0.043263972 1.8989709e-038
0.12692744 0.064165667 0.043331042 1.9450325e-038
0.12858768 0.06490396 0.04270618 1.9635074e-038
0.13096759 0.064164013 0.043465517 1.9543233e-038
0.13335332 0.063424081 0.044225197 1.9174809e-038
0.13574496 0.062684283 0.044985138 1.9357428e-038
0.13703112 0.06416209 0.043668073 1.9080846e-038
0.1390533 0.064161599 0.043735825 1.9080834e-038
0.14070015 0.064900354 0.043111101 1.9264861e-038
0.14272067 0.064900026 0.043179005 1.815779e-038
0.14512302 0.064160615 0.043939821 1.9077937e-038
0.14753141 0.063421249 0.044700988 1.8338926e-038
0.14917246 0.064160377 0.044076458 1.6489958e-038
0.15080878 0.064899564 0.043451935 1.5748072e-038
0.15283243 0.064899668 0.04352051 1.3256663e-038
0.15604106 0.062682301 0.045668967 1.2337235e-038
0.15926662 0.060465094 0.047818083 1.0310737e-038
0.1629094 0.057508763 0.050661363 5.70999e-039
0.16456018 0.058248404 0.050037928 4.5164858e-039
0.16661194 0.058248978 0.050108068 4.3331806e-039
0.16907284 0.057510491 0.050872065 5.3487759e-039
0.062548399 0.0015356857 0.095914878 1.4456634e-038
0.064542256 0.0022735205 0.095300682 1.4268653e-038
0.066031851 0.0044927858 0.093313709 1.3526073e-038
0.068513229 0.003749257 0.094071813 1.2693802e-038
0.070235603 0.0052279215 0.092770621 1.3703994e-038
0.07168968 0.0074472902 0.090782583 1.5176965e-038
0.072867259 0.010407461 0.088107347 1.4992941e-038
0.074811615 0.011145476 0.087491706 1.6937692e-038
0.07675042 0.01188357 0.086875886 1.9908471e-038
0.078683726 0.012621645 0.086259961 8.3703425e-039
0.080069765 0.01484127 0.084269851 8.9267561e-039
0.081713133 0.016320158 0.08296638 8.1005953e-039
0.083069347 0.018539872 0.080975384 8.8306004e-039
0.084409378 0.02075959 0.07898394 1.7493024e-038
0.085451543 0.023720153 0.076304629 1.3241585e-038
0.08675646 0.02594002 0.074312091 1.4803505e-038
0.088332191 0.02741915 0.073006645 1.5357034e-038
0.090476565 0.027416822 0.073076129 1.4804944e-038
0.092036121 0.028896082 0.071770221 1.4161372e-038
0.0932898 0.031116109 0.069776252 1.2142061e-038
0.094825141 0.032595482 0.068469658 1.2882134e-038
0.096349746 0.034074854 0.067162812 1.2973961e-038
0.098166794 0.034813508 0.066543706 1.2697021e-038
0.099672608 0.036293034 0.065236315 1.2419359e-038
0.10116781 0.03777257 0.063928679 1.2049498e-038
0.10265226 0.039252203 0.062620714 1.2138461e-038
0.1031843 0.042954225 0.059247259 1.3149018e-038
0.10495603 0.043693159 0.058626987 1.4343244e-038
0.10640317 0.045172926 0.057318024 1.4802066e-038
0.10719569 0.048134368 0.054631423 1.4894261e-038
0.10731744 0.052577492 0.050566643 1.4710946e-038
0.10740709 0.057020653 0.046500921 1.388837e-038
0.10812473 0.059982311 0.043812066 1.9433393e-038
0.10948665 0.061462414 0.042500656 1.7966149e-038
0.11050252 0.06368342 0.040499836 1.7504447e-038
0.11251695 0.063682064 0.040566191 1.787072e-038
0.11453166 0.063680753 0.04063262 1.7222831e-038
0.11689015 0.06293872 0.041388519 1.7772422e-038
0.11890809 0.062937528 0.041455213 1.5372831e-038
0.12057745 0.063677222 0.040832464 1.1509977e-038
0.12259337 0.063676164 0.040899262 1.9908417e-038
0.1246096 0.063675165 0.040966153 1.908118e-038
0.1266263 0.063674256 0.041033156 1.9542155e-038
0.12828363 0.064414203 0.040410355 1.9081897e-038
0.13029838 0.064413428 0.040477458 1.9082252e-038
0.13267864 0.063671902 0.04123478 1.9266293e-038
0.13506481 0.06293045 0.041992374 1.9357428e-038
0.13634536 0.064411506 0.04067947 1.9542178e-038
0.13798881 0.065151826 0.040056672 1.9449979e-038
0.14000325 0.065151423 0.040124264 1.9357421e-038
0.14277549 0.063669458 0.041573055 1.9540726e-038
0.14479645 0.063669205 0.041641068 1.8617679e-038
0.14720201 0.062928215 0.042399932 1.9078292e-038
0.1488402 0.063668936 0.041777477 1.8521137e-038
0.15086304 0.063668936 0.041845884 1.7504817e-038
0.15288651 0.063669011 0.041914422 1.6484942e-038
0.15530553 0.062928364 0.042674184 1.2520543e-038
0.15852578 0.060706142 0.04481668 1.049513e-038
0.16176303 0.058484007 0.046959866 8.194586e-039
0.16421136 0.057743635 0.047720976 5.8036219e-039
0.16585459 0.058484983 0.04709952 3.7810844e-039
0.16749325 0.059226479 0.046477988 4.4271769e-039
0.17036058 0.05774555 0.04793144 5.2576564e-039
0.06684491 0.00090157986 0.09358605 1.3530391e-038
0.068578079 0.0023835376 0.092289619 1.2236776e-038
0.070300259 0.0038655624 0.090992823 1.3796187e-038
0.071754053 0.0060899453 0.089011312 1.4899659e-038
0.073451668 0.0075720483 0.087713778 1.4716351e-038
0.075138412 0.0090541448 0.086415969 1.6286559e-038
0.077079751 0.0097939 0.08580251 1.5277446e-038
0.078747392 0.011276115 0.084504098 1.3705083e-038
0.080675066 0.012015939 0.083890267 1.3797279e-038
0.082323588 0.013498226 0.08259131 1.3244105e-038
0.083684914 0.015722893 0.080607057 1.1779057e-038
0.085309058 0.017205264 0.079307392 1.2618178e-038
0.086358927 0.020172415 0.076637045 1.2252274e-038
0.087671608 0.022397276 0.074651301 1.4899303e-038
0.088968098 0.024622191 0.07266508 1.4803505e-038
0.091407575 0.023877513 0.073420264 1.5357041e-038
0.093267478 0.024617665 0.07280457 1.4349009e-038
0.094826795 0.02610027 0.071503103 1.315839e-038
0.095779642 0.029067785 0.068829864 1.2601255e-038
0.097312085 0.030550539 0.067527592 1.2690928e-038
0.098833829 0.032033302 0.066225074 1.2322146e-038
0.10034486 0.033516113 0.064922251 1.3795109e-038
0.10153653 0.035741445 0.062933028 1.3795107e-038
0.10271215 0.037966829 0.060943332 1.3608917e-038
0.10418575 0.039449815 0.059639469 1.3700038e-038
0.10596537 0.040190425 0.059021659 1.3607121e-038
0.10773973 0.040931139 0.058403701 1.4160296e-038
0.1088647 0.04315671 0.056412637 1.4527279e-038
0.10964891 0.046124835 0.053734478 1.4894983e-038
0.1100843 0.049835447 0.050368983 1.5170848e-038
0.11016281 0.054288577 0.046315908 1.3976258e-038
0.1105421 0.057999391 0.042948678 1.537429e-038
0.11089461 0.061710235 0.039580669 1.9254031e-038
0.1122352 0.063193783 0.038273051 1.8241292e-038
0.11390617 0.063934952 0.037652288 1.731826e-038
0.11625928 0.063191295 0.038405884 1.7590186e-038
0.11827175 0.063190132 0.038472429 1.6574959e-038
0.11993556 0.06393148 0.037851673 1.5648698e-038
0.12229766 0.063188002 0.038605794 1.3345972e-038
0.12395675 0.063929468 0.037985042 1.9263405e-038
0.12561077 0.06467101 0.0373642 1.945068e-038
0.12761962 0.064670175 0.037431035 1.9450313e-038
0.1296289 0.0646694 0.037497986 1.8620919e-038
0.13200375 0.06392625 0.038252976 1.9542521e-038
0.13401657 0.063925609 0.038320214 1.9357421e-038
0.13565932 0.064667508 0.037699446 1.8712053e-038
0.13767041 0.064667016 0.037766818 1.8526943e-038
0.13968205 0.064666599 0.037834309 1.8989356e-038
0.14207289 0.063923791 0.038590308 1.9356332e-038
0.14408836 0.063923538 0.038658127 1.9356323e-038
0.1461044 0.063923344 0.038726069 1.9355236e-038
0.14812106 0.06392324 0.03879413 1.8707339e-038
0.15013833 0.063923225 0.038862333 1.8521493e-038
0.15215628 0.063923284 0.038930651 1.7503741e-038
0.15456983 0.063180968 0.039688051 1.4087487e-038
0.15698947 0.062438738 0.040445767 8.4661156e-039
0.15941529 0.0616966 0.041203812 9.3891579e-039
0.16225037 0.060212057 0.042651448 9.2969609e-039
0.16469127 0.059470098 0.043410234 6.3524769e-039
0.1679554 0.057243276 0.045548208 4.699438e-039
0.17000309 0.057243969 0.045618363 4.1509403e-039
0.17122392 0.058729712 0.04430946 5.53243e-039
0.17326805 0.058730591 0.044379745 5.4416693e-039
0.068894997 0.00027373061 0.091189414 1.1687925e-038
0.070874579 0.0010150764 0.090579316 1.4256445e-038
0.072591029 0.0025004987 0.089286759 1.4898216e-038
0.07455679 0.0032419022 0.088676274 1.3886229e-038
0.075991146 0.0054714112 0.086700715 1.3980225e-038
0.077674836 0.0069568958 0.085407227 1.3335576e-038
0.079079263 0.0091864802 0.08343076 1.4256812e-038
0.080738463 0.010672042 0.082136542 1.3428493e-038
0.082386807 0.012157697 0.080841988 1.3244102e-038
0.08402428 0.013643336 0.079547137 1.086214e-038
0.085930035 0.014384983 0.078934938 1.7969848e-038
0.086703092 0.018102862 0.075590357 1.3541937e-038
0.088302657 0.019588675 0.074294358 1.4715635e-038
0.089604259 0.021818541 0.072314866 1.4989691e-038
0.091759279 0.021816317 0.072384842 1.4897507e-038
0.093329147 0.023302265 0.071088016 1.3797999e-038
0.094888255 0.024788219 0.06979093 2.1195252e-038
0.096138656 0.027018312 0.06780991 1.0117736e-038
0.097974204 0.027760316 0.067195803 1.2875321e-038
0.099197768 0.029990517 0.065214023 1.2967515e-038
0.10040522 0.032220729 0.063231811 1.3886226e-038
0.10159665 0.034451041 0.061249085 1.4162093e-038
0.10277195 0.036681417 0.059265893 1.4345408e-038
0.10455938 0.037423667 0.058650486 1.4437605e-038
0.10634153 0.038165964 0.05803496 1.4161018e-038
0.10811845 0.038908314 0.05741933 1.5267364e-038
0.10924579 0.041138913 0.055434808 1.3792234e-038
0.11035717 0.043369573 0.053449836 1.3700394e-038
0.11145254 0.04560025 0.051464431 1.4066656e-038
0.11220174 0.048575114 0.048793904 1.4162091e-038
0.1122638 0.053038213 0.044753291 1.3147586e-038
0.11262929 0.05675735 0.041396469 1.2876379e-038
0.1129682 0.060476508 0.038038876 1.6856214e-038
0.11396237 0.062707528 0.036050495 1.7041321e-038
0.1152844 0.06419456 0.034746699 1.7501946e-038
0.11763509 0.063449278 0.035498209 1.7038455e-038
0.11929327 0.064192355 0.034879394 1.5557223e-038
0.12165 0.063447192 0.035631258 1.4451961e-038
0.12365796 0.063446239 0.035697926 8.3810876e-039
0.12566632 0.063445345 0.035764679 1.5761058e-038
0.12731512 0.064188659 0.035145871 1.9357395e-038
0.12932158 0.064187899 0.035212733 1.9449238e-038
0.13132846 0.064187214 0.035279699 1.9633631e-038
0.13370377 0.063442424 0.036032688 1.98184e-038
0.13571428 0.063441873 0.036099948 1.8895725e-038
0.13772529 0.063441381 0.036167324 8.6602249e-039
0.13973677 0.063440964 0.0362348 1.5945476e-038
0.14174883 0.063440621 0.036302399 1.7604606e-038
0.14337999 0.064184502 0.035683732 1.9264126e-038
0.14500634 0.064928398 0.035065044 1.96311e-038
0.14740159 0.064184189 0.035819333 1.8984646e-038
0.1494133 0.064184144 0.03588732 1.8891363e-038
0.15142573 0.064184189 0.035955437 1.8888117e-038
0.15343881 0.064184308 0.036023676 1.7133531e-038
0.15585034 0.063440368 0.036778979 1.5099854e-038
0.15786757 0.063440651 0.03684758 1.2979016e-038
0.1606918 0.061952833 0.038290463 1.1230188e-038
0.1639334 0.059720945 0.040421054 9.5739121e-039
0.1667836 0.058233302 0.041865058 5.5252344e-039
0.16717811 0.06121039 0.039185442 2.7698009e-039
0.16713783 0.064931676 0.035817791 6.0870345e-039
0.16915463 0.064932495 0.035887074 1.7517128e-038
0.17201114 0.063445181 0.037331823 1.9357422e-038
0.17656778 0.058981579 0.041527975 1.8156705e-038
0.072913088 0.00039237738 0.088189021 1.4714901e-038
0.074360706 0.0026268568 0.086220413 1.4715621e-038
0.076055124 0.0041157147 0.084931597 1.3978775e-038
0.077738605 0.0056045698 0.083642505 1.3795468e-038
0.079411231 0.0070934575 0.082353085 1.3611798e-038
0.080801785 0.0093280971 0.080382749 1.3612886e-038
0.082449928 0.010817109 0.07909257 1.361505e-038
0.084087178 0.012306109 0.077802107 1.5389092e-038
0.085992791 0.013049465 0.077192135 1.2161169e-038
0.087329172 0.015284277 0.075220197 9.0103281e-039
0.089218527 0.016027713 0.074609779 1.0945349e-038
0.09052787 0.018262615 0.072637044 1.3626216e-038
0.092400923 0.019006129 0.072026178 1.5195339e-038
0.093390711 0.021986816 0.069371395 1.6483559e-038
0.095244922 0.022730418 0.068760008 2.0553486e-038
0.096497729 0.024965513 0.066785604 9.5652857e-039
0.098335825 0.025709201 0.066173792 1.2876043e-038
0.099258415 0.0286901 0.063517012 1.2967518e-038
0.10077164 0.030179597 0.062223002 1.3702555e-038
0.10196543 0.032414902 0.060246877 1.4069896e-038
0.10376608 0.03315879 0.059634056 1.5172289e-038
0.10556145 0.03390272 0.059021112 1.4896062e-038
0.10735152 0.034646701 0.058408055 1.5548997e-038
0.10881681 0.036136501 0.05711272 1.4720674e-038
0.10994921 0.038372066 0.055134863 1.3149027e-038
0.11139058 0.039861936 0.053838909 1.3425251e-038
0.11249372 0.042097624 0.051860221 1.3056823e-038
0.11358096 0.044333335 0.049881119 1.3609995e-038
0.11431917 0.047314871 0.047218934 1.3425602e-038
0.11470038 0.051042207 0.043873459 1.39777e-038
0.11471657 0.05551539 0.039844379 1.4162447e-038
0.11572392 0.057751354 0.037862912 1.5545379e-038
0.11671536 0.059987437 0.035880957 1.8602552e-038
0.11803742 0.061477799 0.034581613 1.7500529e-038
0.11899984 0.063713998 0.032598831 1.243304e-038
0.12100199 0.063713014 0.032665249 1.0778551e-038
0.12264992 0.064457804 0.032048464 1.5020609e-038
0.12500733 0.063711196 0.032798342 1.3452568e-038
0.12629068 0.065201864 0.031498093 1.6588283e-038
0.12865157 0.064455375 0.032248259 1.861838e-038
0.13101822 0.063708946 0.032998681 1.9909112e-038
0.13302279 0.06370832 0.033065673 1.981692e-038
0.13502775 0.063707769 0.033132754 1.9909115e-038
0.13703325 0.063707277 0.03319994 1.7788615e-038
0.13941534 0.062961116 0.033951242 1.0965799e-038
0.14104578 0.063706517 0.033334639 1.6313512e-038
0.14267135 0.064451993 0.032717969 1.8249976e-038
0.14467631 0.064451784 0.032785513 1.953999e-038
0.14629495 0.065197408 0.032168798 1.861767e-038
0.14868811 0.064451605 0.032920957 1.9077563e-038
0.1510873 0.063705876 0.033673409 1.9258352e-038
0.1527025 0.064451739 0.033056889 1.8058004e-038
0.15471074 0.064451918 0.033125043 1.731288e-038
0.15631929 0.06519793 0.032508504 1.6020705e-038
0.15953581 0.062961027 0.034631602 1.2519478e-038
0.16195765 0.062215675 0.035385404 6.3521084e-039
0.16479431 0.060724702 0.036824591 5.8057757e-039
0.1647635 0.064454079 0.033467852 1.161985e-038
0.16553447 0.066692054 0.031480908 1.8619868e-038
0.16795701 0.065947086 0.032235149 1.8525865e-038
0.17038591 0.065202177 0.032989774 1.8801349e-038
0.17324328 0.063711658 0.034430258 1.879955e-038
0.17653745 0.061475452 0.036556996 1.5112819e-038
0.074424803 0.0012677275 0.084446803 1.4808538e-038
0.076382138 0.0020125983 0.083840564 1.434756e-038
0.078068092 0.0035048621 0.082555912 1.3795468e-038
0.080011696 0.0042497981 0.081949294 1.3611798e-038
0.081136189 0.0072367601 0.079307258 1.3151906e-038
0.082786828 0.0087290853 0.078021601 1.2971838e-038
0.08470311 0.009474162 0.07741414 2.0738596e-038
0.086334743 0.010966558 0.076127924 1.990992e-038
0.087673508 0.013206366 0.074162588 2.000212e-038
0.089565419 0.013951518 0.073554501 2.0092518e-038
0.090877198 0.016191373 0.071588412 1.5935426e-038
0.093042828 0.016189257 0.071658894 8.5536547e-039
0.094330333 0.01842924 0.069692045 1.9810884e-038
0.095897071 0.019921934 0.068403922 1.3452985e-038
0.09715499 0.022161972 0.066436253 1.195733e-038
0.098396763 0.024402104 0.064468071 1.3151909e-038
0.099925876 0.025894891 0.063178889 1.3244105e-038
0.10144429 0.027387772 0.061889373 1.3241937e-038
0.10264317 0.029628016 0.059919976 1.3243016e-038
0.10413748 0.031120997 0.058629777 1.3978787e-038
0.10562116 0.032613982 0.057339326 1.8134789e-038
0.10741109 0.033359658 0.056728479 1.610649e-038
0.10887615 0.034852784 0.055437487 1.4168222e-038
0.1103306 0.036345933 0.054146253 1.4622716e-038
0.11177439 0.037839171 0.052854683 1.388515e-038
0.11255223 0.040827196 0.050202325 1.3241214e-038
0.11363909 0.04306788 0.048229706 1.3426323e-038
0.11504312 0.044561289 0.046937015 1.3334126e-038
0.11677235 0.045307338 0.046324603 1.3978773e-038
0.11680415 0.049790371 0.04230902 1.434612e-038
0.11782733 0.052031342 0.040334523 1.5173362e-038
0.11814693 0.05576713 0.036998007 1.4530507e-038
0.11947951 0.0572608 0.035703339 1.1681807e-038
0.11940472 0.06174415 0.031684466 1.4834814e-038
0.12035367 0.063985333 0.029707834 1.8432593e-038
0.12235063 0.063984409 0.029774174 1.8155981e-038
0.12434799 0.06398356 0.029840613 1.9446001e-038
0.12634574 0.06398277 0.029907135 1.8523682e-038
0.12834391 0.063982025 0.029973749 1.7509164e-038
0.13070789 0.063233957 0.030721959 1.4929099e-038
0.1330777 0.062485959 0.031470444 1.8062322e-038
0.13471174 0.063232794 0.030855848 1.999986e-038
0.13671443 0.063232318 0.030922947 2.0000591e-038
0.13871759 0.0632319 0.03099015 1.963182e-038
0.14110023 0.062484156 0.03173941 1.944744e-038
0.1427256 0.063231274 0.031124875 1.9631831e-038
0.14473049 0.063231066 0.031192407 1.9539992e-038
0.1459619 0.064725757 0.029895559 1.8986099e-038
0.14835227 0.063978255 0.030645486 1.9539625e-038
0.15074876 0.063230872 0.031395692 1.9077563e-038
0.15236107 0.063978344 0.030781187 1.8152004e-038
0.15436648 0.063978508 0.030849226 1.7410116e-038
0.15557154 0.065473586 0.029551983 1.6668234e-038
0.15797621 0.064726517 0.030302862 1.4824702e-038
0.1603872 0.063979477 0.031054102 5.7985618e-039
0.16239566 0.063979954 0.031122655 5.0721637e-039
0.16358225 0.06547536 0.029825214 1.8904378e-038
0.16475886 0.06697078 0.028527569 1.8619864e-038
0.16759263 0.065476745 0.029962651 1.9265226e-038
0.17043824 0.063982755 0.0313983 1.9171223e-038
0.1732956 0.062488887 0.032834422 1.8156715e-038
0.17489 0.063237295 0.03222052 1.2436637e-038
0.17733535 0.062491003 0.032973811 6.6276345e-039
0.07644596 0.00065512676 0.082069114 1.4625582e-038
0.078131743 0.0021507544 0.080788851 1.3979859e-038
0.080075219 0.0028974097 0.080184475 1.3519603e-038
0.081741922 0.0043930579 0.07890369 1.3428128e-038
0.083397709 0.0058887824 0.077622548 1.2876396e-038
0.085042641 0.0073845023 0.076341115 1.2047002e-038
0.086676724 0.008880306 0.075059339 1.2966439e-038
0.088017941 0.011125075 0.073100664 1.2690574e-038
0.090197071 0.011122948 0.073171586 1.1585669e-038
0.091513924 0.013367845 0.071212158 1.0115583e-038
0.093394823 0.014114777 0.070606023 1.2339078e-038
0.09468472 0.016359758 0.06864579 1.8340438e-038
0.096549451 0.017106768 0.068039224 7.5434643e-039
0.097514227 0.020100832 0.065401062 1.2601981e-038
0.098758422 0.022345964 0.063439488 1.3980236e-038
0.10029004 0.023842096 0.06215477 1.3057916e-038
0.1018109 0.025338318 0.060869709 1.3063311e-038
0.10301217 0.027583547 0.058906905 1.3061151e-038
0.10482059 0.028330825 0.058298767 1.3151906e-038
0.10599512 0.030576196 0.056335147 1.6293396e-038
0.10747057 0.03207257 0.055048846 1.5644788e-038
0.10893544 0.033569042 0.053762212 1.4070263e-038
0.110712 0.034316503 0.053153243 1.4804221e-038
0.11248335 0.035064016 0.052544169 1.3608916e-038
0.11326621 0.038058672 0.049900632 1.3517801e-038
0.11435812 0.040304366 0.047934636 1.3241934e-038
0.11576732 0.041801058 0.046646513 1.3242292e-038
0.11783761 0.041799761 0.046714835 1.3426323e-038
0.11855403 0.044794649 0.044069357 1.3703264e-038
0.11993156 0.046291549 0.042780332 1.4897127e-038
0.12164255 0.047039438 0.042169701 1.443615e-038
0.12230863 0.050034512 0.039522763 1.3887657e-038
0.12155621 0.056025762 0.034159929 1.0497287e-038
0.12146501 0.060519073 0.030153513 1.1513957e-038
0.12240589 0.06276527 0.028183162 1.6680145e-038
0.12440315 0.062764436 0.028249614 1.953856e-038
0.1260407 0.063512728 0.027636942 1.9353804e-038
0.12803605 0.063511997 0.027703479 1.8891744e-038
0.13039732 0.06276226 0.028449506 1.7045657e-038
0.13239622 0.062761649 0.028516311 1.575456e-038
0.13402471 0.063510194 0.027903657 1.7231106e-038
0.13527472 0.065007791 0.026611326 2.0457248e-038
0.13726699 0.065007389 0.026678164 1.9171931e-038
0.1396388 0.064257994 0.027424905 1.9172651e-038
0.14201653 0.063508675 0.028171949 1.88957e-038
0.14401588 0.063508466 0.028239278 1.6588657e-038
0.14562874 0.064257354 0.027626649 1.8985386e-038
0.14801635 0.063508242 0.028374288 1.9077574e-038
0.15041009 0.062759161 0.029122265 1.9076488e-038
0.15162428 0.064257354 0.027829405 1.8706253e-038
0.15322623 0.065006524 0.027216781 1.8152001e-038
0.15402234 0.067253917 0.025242984 1.6668234e-038
0.15681948 0.065756083 0.026671985 1.4915439e-038
0.15962823 0.064258382 0.028101439 1.3256663e-038
0.16163115 0.064258829 0.028169766 9.2155483e-039
0.16322349 0.065008402 0.027557325 1.9914922e-038
0.16481128 0.065758049 0.026944831 1.9542178e-038
0.16764504 0.064260677 0.028375564 1.9450701e-038
0.17007107 0.06351243 0.029125635 1.9264503e-038
0.17250343 0.062764212 0.029876066 1.9448899e-038
0.1745172 0.062765181 0.02994542 1.7972338e-038
0.17653196 0.062766224 0.030014925 1.3727406e-038
0.17811731 0.063516438 0.02940299 1.0779309e-038
0.18056466 0.062768593 0.030154407 1.4375254e-038
0.080407262 0.00079434831 0.079093598 1.3795109e-038
0.082347773 0.0015427489 0.078491405 1.3610722e-038
0.084008791 0.0030417908 0.077214852 1.3151185e-038
0.085658886 0.0045409147 0.075937957 1.3612163e-038
0.087018751 0.0067906994 0.073986366 1.3978787e-038
0.088362359 0.009040473 0.072034314 1.4531244e-038
0.089974575 0.010539709 0.070756286 1.8038278e-038
0.09128847 0.012789577 0.06880334 1.81564e-038
0.093166545 0.013538217 0.068199344 1.8621701e-038
0.095332079 0.013536256 0.068270028 1.8529867e-038
0.096906438 0.01503565 0.066990912 1.7788701e-038
0.098171845 0.017285721 0.065036505 1.6117659e-038
0.09972202 0.018785153 0.063756727 1.6301329e-038
0.10126153 0.02028463 0.062476646 1.9994552e-038
0.10248391 0.022534842 0.060520969 1.9996707e-038
0.1036903 0.024785105 0.058564816 1.1037526e-038
0.10488054 0.027035374 0.056608222 1.3612886e-038
0.10668355 0.027784429 0.056002133 1.8597567e-038
0.10816416 0.029284146 0.054720368 1.2781682e-038
0.10963417 0.030783903 0.053438298 1.4438324e-038
0.11141597 0.031533096 0.05283168 1.4069896e-038
0.11286741 0.033032957 0.051549114 1.4529429e-038
0.11332475 0.036784895 0.048238359 1.3703271e-038
0.11507744 0.037534196 0.047630988 1.2874587e-038
0.11715823 0.037532881 0.047699641 1.3243015e-038
0.11923919 0.037531611 0.047768358 1.370435e-038
0.11962738 0.041283827 0.044455525 1.3244091e-038
0.1206715 0.04353467 0.04249474 1.3703624e-038
0.12169971 0.045785617 0.040533457 1.4995438e-038
0.12305874 0.047285911 0.039248332 1.8329575e-038
0.12300978 0.051789042 0.035256177 1.2617043e-038
0.1232809 0.055541527 0.031939827 1.7414816e-038
0.12352539 0.059294071 0.028622665 1.7694294e-038
0.12481575 0.060794603 0.027335539 2.0183576e-038
0.12645583 0.061544519 0.026725158 1.9630759e-038
0.12809095 0.062294532 0.026114646 1.9076858e-038
0.12972105 0.063044563 0.025504082 1.8519723e-038
0.13171449 0.063043967 0.025570728 1.6675809e-038
0.13370833 0.063043445 0.025637465 1.6857294e-038
0.13495541 0.064544335 0.024349339 1.7686334e-038
0.1369449 0.064543918 0.024416089 1.9813702e-038
0.13893491 0.064543575 0.024482936 1.9631467e-038
0.14207068 0.062291246 0.026583139 1.9170487e-038
0.14368547 0.063041702 0.025972623 1.5757104e-038
0.14568254 0.063041553 0.026039962 1.4743327e-038
0.14729045 0.063792154 0.025429396 1.8432212e-038
0.14967874 0.063041463 0.026174989 1.9814776e-038
0.15049195 0.065293565 0.024208037 1.8798799e-038
0.15208568 0.06604442 0.023597233 1.8705886e-038
0.15367463 0.066795304 0.02298639 1.6025381e-038
0.15646909 0.065294161 0.024410963 1.6207984e-038
0.16008733 0.062291775 0.027193144 1.5103088e-038
0.16209288 0.0622922 0.027261522 1.0687071e-038
0.16368768 0.063043371 0.026651267 1.8532346e-038
0.16444951 0.065296009 0.024683261 1.8808933e-038
0.1672806 0.063795298 0.026109559 1.8900773e-038
0.16970383 0.063045353 0.026857322 1.9083726e-038
0.17213339 0.062295508 0.027605413 1.9266675e-038
0.1741443 0.062296417 0.027674604 1.9172682e-038
0.17615622 0.062297408 0.02774395 1.9355993e-038
0.17773867 0.063049167 0.027134029 1.8342197e-038
0.17974989 0.06305033 0.027203569 1.9262707e-038
0.084345944 0.00094046071 0.076126412 1.4162093e-038
0.085998558 0.0024429522 0.074853987 1.462163e-038
0.087360844 0.0046976963 0.072909065 1.4714545e-038
0.088706844 0.0069525279 0.070963606 1.4807105e-038
0.090606421 0.0077028051 0.070362478 1.61922e-038
0.091637842 0.010709988 0.067743719 1.953969e-038
0.093518473 0.01146034 0.06714204 1.1520474e-038
0.09539374 0.012210727 0.066540241 1.0863946e-038
0.097559184 0.012208868 0.066611044 1.6863143e-038
0.099127948 0.013711648 0.065336168 1.991244e-038
0.10068601 0.015214425 0.064061023 2.0279781e-038
0.10192966 0.017469585 0.062112525 1.963081e-038
0.10254439 0.02122937 0.058817342 9.9344228e-039
0.10375041 0.023484625 0.056867704 1.5183813e-038
0.10556395 0.024235293 0.056264173 1.7399744e-038
0.10768664 0.024233703 0.056333885 1.7031321e-038
0.10949228 0.024984449 0.055730194 1.3150464e-038
0.11129265 0.02573524 0.055126384 1.3609638e-038
0.11244272 0.027990725 0.053175151 1.3979859e-038
0.11357676 0.030246269 0.051223446 1.4163889e-038
0.11436696 0.033254169 0.048597466 1.3797619e-038
0.11612754 0.034005146 0.047992557 1.370435e-038
0.11754978 0.035508491 0.046713561 1.2874243e-038
0.11963334 0.035507262 0.046782415 1.2874598e-038
0.12036248 0.038515378 0.044154648 1.3059344e-038
0.12175301 0.040018916 0.042874739 1.315225e-038
0.12278902 0.042274784 0.040920246 1.4732504e-038
0.12450263 0.043026071 0.040314149 1.7506258e-038
0.12481339 0.046786737 0.037009828 1.5757055e-038
0.12544969 0.04979514 0.034379303 1.6956329e-038
0.12570992 0.053555932 0.031073444 1.6957417e-038
0.12594354 0.057316776 0.027766759 2.0552713e-038
0.12651083 0.060325373 0.025134139 1.9999183e-038
0.12741989 0.062581703 0.023175858 1.8524042e-038
0.12941009 0.062581062 0.023242339 1.9997371e-038
0.13103239 0.063332811 0.02263375 1.8703746e-038
0.13302076 0.063332289 0.022700313 1.7873978e-038
0.13426217 0.064836532 0.021416269 1.7871097e-038
0.13662261 0.064083755 0.022158308 1.4363368e-038
0.13823068 0.064835787 0.02154951 1.3722671e-038
0.14136118 0.06257847 0.023643125 1.5940043e-038
0.14297038 0.063330576 0.023034565 1.953533e-038
0.14534923 0.062578097 0.023777505 1.6123751e-038
0.14695422 0.063330323 0.023168975 7.6435576e-039
0.14933972 0.062577978 0.023912305 1.1054781e-038
0.15054531 0.064082682 0.022627756 1.7138204e-038
0.15213878 0.064835161 0.022019058 1.815199e-038
0.15412827 0.06483534 0.022086576 1.7040257e-038
0.15773243 0.061826225 0.024859589 1.6394902e-038
0.16176511 0.058064859 0.02830988 1.4275857e-038
0.16378136 0.058065262 0.028378593 5.7139444e-039
0.16374049 0.061827403 0.025064327 4.8892242e-039
0.16450195 0.064084932 0.023102714 1.9547229e-038
0.16608205 0.064837933 0.022494234 1.8808221e-038
0.16807733 0.064838618 0.022562619 1.8899692e-038
0.17049603 0.064087033 0.023308171 1.9267031e-038
0.17292109 0.063335568 0.024054009 1.9634019e-038
0.17578045 0.061831865 0.025477337 1.9725853e-038
0.17822109 0.061080571 0.026223924 1.981841e-038
0.086061358 0.0010955501 0.073095664 1.5173725e-038
0.08770296 0.0026013944 0.071827352 1.5358116e-038
0.089333624 0.0041073151 0.070558675 1.4346129e-038
0.091238461 0.0048593078 0.069959968 1.4163897e-038
0.092562571 0.0071191732 0.068020441 1.3617208e-038
0.094160803 0.0086252056 0.06675081 1.1219401e-038
0.096041299 0.0093773007 0.06615141 1.361253e-038
0.098212041 0.0093754921 0.066222459 1.2045203e-038
0.099786043 0.01088158 0.06495218 1.1219044e-038
0.10134923 0.012387756 0.063681558 1.1312317e-038
0.10229422 0.015401844 0.061068892 1.2049523e-038
0.10291117 0.019169917 0.057784613 1.2972913e-038
0.10411962 0.021430168 0.05584158 1.4727875e-038
0.10562386 0.022936471 0.054569222 1.7211038e-038
0.10806105 0.022180997 0.055310227 1.370148e-038
0.10986925 0.022933438 0.054708835 1.4990057e-038
0.11167219 0.023685925 0.054107323 1.3976627e-038
0.11250199 0.026700344 0.051491201 1.3058625e-038
0.11363573 0.028960865 0.049545996 1.5647633e-038
0.11508156 0.030467439 0.048272017 1.3902376e-038
0.1168474 0.031220112 0.047669493 1.4730706e-038
0.11794138 0.033480782 0.045723137 1.4719585e-038
0.11935543 0.034987506 0.044448279 1.434757e-038
0.12042023 0.03724828 0.042501073 1.416317e-038
0.12181058 0.038755149 0.041225508 1.3154766e-038
0.12250213 0.041769948 0.038605303 1.796976e-038
0.1238661 0.043276925 0.037328977 1.6313473e-038
0.12521958 0.044783901 0.03605241 1.7051038e-038
0.12691486 0.045536976 0.035448022 1.6129095e-038
0.12754029 0.04855204 0.032825828 1.6313484e-038
0.12778701 0.05232114 0.029530369 1.631384e-038
0.12800705 0.056090292 0.026234075 1.8525119e-038
0.12820056 0.059859555 0.022936929 2.0092089e-038
0.12909897 0.062120844 0.020984864 2.009138e-038
0.13071842 0.062874258 0.020378351 1.9354172e-038
0.13307507 0.062119771 0.021117931 1.8981817e-038
0.13469009 0.062873289 0.020511413 1.7223287e-038
0.13630013 0.063626915 0.019904759 1.9714008e-038
0.13828459 0.063626572 0.019971434 1.3259946e-038
0.1406514 0.062872276 0.020711688 1.4176131e-038
0.14263964 0.062872052 0.020778641 1.2792828e-038
0.1450157 0.062117916 0.021519329 1.1779396e-038
0.1473978 0.061363835 0.022260297 1.1699811e-038
0.149786 0.060609829 0.023001559 9.7669424e-039
0.15178485 0.060609858 0.023069199 1.1243873e-038
0.15338628 0.061363924 0.022462944 1.1705572e-038
0.15498298 0.062118065 0.02185661 1.2162953e-038
0.15697858 0.062118288 0.021924403 6.8130865e-039
0.15978739 0.060610641 0.023340862 5.4330387e-039
0.16260788 0.059103023 0.024757858 5.0693037e-039
0.16379334 0.060611453 0.023477402 4.0562252e-039
0.16496888 0.062119912 0.022196749 1.4387515e-038
0.16571727 0.064382449 0.020241149 1.7980257e-038
0.16728994 0.065137088 0.019634649 1.9359228e-038
0.16970311 0.06438385 0.02037777 1.9450701e-038
0.17212267 0.063630685 0.021121204 1.9267396e-038
0.17540461 0.061369639 0.023215052 1.9450714e-038
0.088045098 0.00050175004 0.070741281 1.5082608e-038
0.090242937 0.00049985945 0.070813134 1.4714545e-038
0.091870703 0.0020091319 0.069548838 1.4162813e-038
0.093487598 0.0035184789 0.068284169 1.3520689e-038
0.094803303 0.0057833865 0.066350944 1.3336299e-038
0.096102864 0.0080483854 0.064417198 1.315011e-038
0.097977802 0.008802224 0.063819885 1.3795479e-038
0.099250436 0.011067295 0.061885327 1.4162461e-038
0.10080809 0.012576789 0.060618941 1.3611087e-038
0.10205114 0.014841944 0.058683485 1.2786727e-038
0.1035846 0.016351512 0.057416383 1.1958406e-038
0.10510737 0.017861167 0.056148939 1.4358384e-038
0.10661951 0.01937082 0.054881223 1.2053123e-038
0.10843552 0.020124966 0.054282226 1.7392907e-038
0.10992894 0.021634698 0.053013984 1.3609285e-038
0.11141176 0.023144472 0.051745437 1.4162093e-038
0.11223855 0.026165526 0.049137883 1.3151892e-038
0.11434544 0.0261642 0.049207397 1.5650506e-038
0.11612447 0.026918516 0.048607469 1.4181125e-038
0.11756749 0.02842851 0.047337767 1.3532163e-038
0.11799963 0.032205362 0.044058707 1.3703994e-038
0.11907735 0.034471061 0.042118374 1.4346482e-038
0.1208168 0.035225559 0.041517343 1.3703627e-038
0.12255114 0.035980102 0.040916201 1.9245778e-038
0.12359192 0.038245957 0.038974818 1.0501207e-038
0.12496374 0.039756197 0.03770313 1.4838354e-038
0.12597549 0.042022157 0.035760902 1.6313118e-038
0.12802829 0.042021286 0.035829186 1.668227e-038
0.12901646 0.044287305 0.033886332 1.6957068e-038
0.1296311 0.047309026 0.031272478 1.6312409e-038
0.12950379 0.051842086 0.027316771 1.6774466e-038
0.13007078 0.054863881 0.0247015 1.6773047e-038
0.13025075 0.058641445 0.021414742 2.0367967e-038
0.13114119 0.06090774 0.019468948 1.8984326e-038
0.13238701 0.062418524 0.018193608 1.7782932e-038
0.13437036 0.062418085 0.018260099 1.6574677e-038
0.13635412 0.06241769 0.018326681 1.8240684e-038
0.13833843 0.062417354 0.018393353 1.7596741e-038
0.13994129 0.063172698 0.017788805 1.8514733e-038
0.14230873 0.062416855 0.018526971 1.5191359e-038
0.14468209 0.061661031 0.019265452 1.048866e-038
0.14784159 0.059394058 0.02134734 7.2722738e-039
0.15062529 0.057882737 0.022758245 8.0127087e-039
0.1522339 0.05863842 0.022154242 6.2642371e-039
0.15343967 0.06014974 0.020878348 4.2380955e-039
0.15423442 0.062416788 0.018930206 1.2627532e-038
0.15582086 0.063172609 0.018325739 1.815745e-038
0.15699634 0.064684123 0.017049072 1.935274e-038
0.15897985 0.064684466 0.017116599 1.6677621e-038
0.1617876 0.063173637 0.018528875 9.0308123e-039
0.16377814 0.063174129 0.018596824 3.872173e-039
0.16493526 0.064685911 0.01731988 1.9085517e-038
0.16608246 0.066197813 0.016042667 1.8991516e-038
0.16806485 0.066198498 0.016110606 1.5393009e-038
0.1713241 0.063932374 0.018197063 1.2350204e-038
0.17716882 0.057132605 0.024321498 2.0555263e-038
0.089740545 0.00066857319 0.067725286 1.4346482e-038
0.09136273 0.0021812618 0.066465162 1.4255362e-038
0.093261838 0.0029367162 0.065870784 1.3703271e-038
0.094574593 0.0052066846 0.063943967 1.3611798e-038
0.096164353 0.0067194253 0.062682919 1.3427406e-038
0.09774331 0.0082321968 0.06142154 1.3150819e-038
0.099311508 0.0097450558 0.060159814 1.4163893e-038
0.10086892 0.011257898 0.058897801 1.4438324e-038
0.10211172 0.013528056 0.056968875 1.4627036e-038
0.10395161 0.014283752 0.056372806 1.6938412e-038
0.10547688 0.015796758 0.055109818 1.6293403e-038
0.10699145 0.017309751 0.053846553 1.3065476e-038
0.10849537 0.018822838 0.052582949 1.6961092e-038
0.10998859 0.020335918 0.051319078 1.4195221e-038
0.11147117 0.02184904 0.050054893 1.2428381e-038
0.11229761 0.024876729 0.047455996 1.104542e-038
0.11440443 0.024875451 0.047525577 1.6126971e-038
0.11618333 0.025631454 0.046927847 1.6408259e-038
0.11828781 0.025630251 0.04699745 1.0217481e-038
0.11905841 0.028658126 0.0443969 1.3244102e-038
0.11980765 0.031686045 0.041795693 1.4255011e-038
0.12121347 0.033199523 0.040529285 1.68548e-038
0.12260876 0.034713 0.039262611 1.6952742e-038
0.12364924 0.036983822 0.037327711 7.3665952e-039
0.12502082 0.038497396 0.036060367 1.3821018e-038
0.12638195 0.040011063 0.034792691 1.5943272e-038
0.12808499 0.040767472 0.034192935 1.4836924e-038
0.12942791 0.042281192 0.032924809 7.1825599e-039
0.13111824 0.043037709 0.032324754 1.3083077e-038
0.13172208 0.04606609 0.029719232 1.6218792e-038
0.13230488 0.049094528 0.027113073 1.6403545e-038
0.13213471 0.053637546 0.023169031 1.6771972e-038
0.13266975 0.056666102 0.020561399 1.7694294e-038
0.13355491 0.058937442 0.018621925 1.6310642e-038
0.13479835 0.060451534 0.017350923 1.0224315e-038
0.13603148 0.061965723 0.016079608 1.7785454e-038
0.13801296 0.061965395 0.016146189 2.0182898e-038
0.13923094 0.063479647 0.01487454 1.4831951e-038
0.14120817 0.063479438 0.014941122 1.6669039e-038
0.14318596 0.06347926 0.015007794 1.906972e-038
0.14594463 0.061964627 0.016413432 1.0029865e-038
0.14871483 0.060449999 0.017819569 1.1686863e-038
0.15070534 0.060450014 0.017886899 1.0951091e-038
0.1522983 0.061207395 0.017284585 1.7600681e-038
0.15308459 0.063479319 0.015342623 2.0003154e-038
0.15466276 0.06423682 0.014739966 1.9079393e-038
0.15582988 0.065751597 0.013467286 1.898539e-038
0.15780514 0.06575191 0.013534505 1.8152736e-038
0.16060477 0.064237773 0.014942165 1.7871105e-038
0.16341613 0.062723652 0.016350355 1.71321e-038
