# .PCD v0.7 - Point Cloud Data file format
VERSION 0.7
FIELDS x y z rgb
SIZE 4 4 4 4
TYPE F F F F
COUNT 1 1 1 1
WIDTH 942
HEIGHT 1
VIEWPOINT 0 0 0 1 0 0 0
POINTS 942
DATA ascii
0.041881979 0.055173371 0.010488644 1.3547264e-038
0.044001259 0.055170733 0.010864593 1.308593e-038
0.046120249 0.055168103 0.011240495 1.3269243e-038
0.048059568 0.05611584 0.0097934343 1.2347292e-038
0.050172664 0.056113224 0.010168295 9.3052033e-039
0.052190512 0.05658583 0.0096306652 8.1970691e-039
0.054300524 0.056583237 0.01000499 6.7252125e-039
0.056209557 0.057531036 0.0085525662 2.4893072e-039
0.058416717 0.057053272 0.0098396875 7.4015744e-040
0.060417656 0.057525903 0.009299133 6.4796742e-040
0.062521368 0.057523351 0.0096723586 6.4796742e-040
0.064624853 0.057520822 0.010045558 4.6357616e-040
0.066728145 0.057518296 0.010418732 5.5577039e-040
0.068714954 0.057991002 0.0098756999 6.4760868e-040
0.070696265 0.058463756 0.0093316548 6.4760868e-040
0.07279367 0.05846129 0.0097038075 2.2152581e-039
0.074766695 0.058934066 0.0091583692 1.2727333e-038
0.076861098 0.058931634 0.0095300153 6.3058431e-044
0.078825831 0.059404455 0.008983124 1.4737624e-039
0.080917284 0.059402075 0.009354271 8.2994354e-039
0.083008602 0.059399713 0.0097254142 1.005258e-038
0.085099831 0.059397381 0.010096554 5.5250956e-040
0.087190896 0.059395071 0.010467678 6.1778527e-039
0.089139111 0.059868027 0.0099179298 1.2171639e-038
0.091227353 0.059865769 0.010288585 1.0138563e-039
0.093315542 0.059863545 0.010659251 9.2095157e-040
0.095252924 0.060336601 0.010107633 7.3835817e-040
0.097184964 0.060809717 0.0095550343 8.2946359e-040
0.098955683 0.061758097 0.008078333 1.3555283e-038
0.10119169 0.061280746 0.0093708448 1.1067385e-039
0.10327174 0.06127869 0.0097401664 1.3646409e-038
0.10567963 0.060326111 0.011958819 8.8508197e-039
0.10759836 0.060799405 0.011403959 1.013136e-039
0.10968105 0.060797453 0.011773817 1.0124269e-039
0.11142004 0.061746079 0.010291614 9.1905561e-041
0.11332298 0.062219482 0.0097340792 1.3186866e-038
0.11522073 0.06269294 0.0091756471 7.3833015e-040
0.11747296 0.062215876 0.010471229 1.0127815e-039
0.11973056 0.061738845 0.01176779 5.3477459e-039
0.12162331 0.062212434 0.011208549 1.1434429e-038
0.12369867 0.06221078 0.011577286 1.0143333e-038
0.1259647 0.06173389 0.012875436 3.7835059e-044
0.12804301 0.061732326 0.013244754 5.9012658e-039
0.12973006 0.062681407 0.011753581 1.2909197e-038
0.13140671 0.063630566 0.01026053 1.9361559e-039
0.13347505 0.063629165 0.010628175 4.5960348e-040
0.13574736 0.063152529 0.011927605 1.189613e-038
0.13761255 0.063626528 0.011363711 6.3633089e-039
0.1396817 0.063625291 0.011731599 1.3185783e-038
0.14153947 0.064099416 0.011166459 4.6030833e-040
0.14382088 0.063622996 0.012467643 2.7556955e-040
0.14567402 0.064097241 0.011901751 1.2632264e-038
0.14752218 0.064571545 0.011335013 1.0973449e-038
0.14958769 0.064570606 0.011702444 6.0867403e-039
0.15165363 0.064569727 0.012069985 1.0974171e-038
0.15371995 0.064568922 0.012437634 2.8634876e-039
0.15578675 0.064568177 0.012805413 1.2080876e-038
0.15785399 0.064567506 0.013173312 2.4907548e-039
0.16015734 0.064091578 0.01447871 3.409837e-039
0.0029849634 0.034753937 0.037308916 1.3000307e-038
0.004463397 0.045254957 0.017900806 8.480933e-039
0.0063025728 0.049549423 0.010180153 1.401653e-038
0.0084091127 0.050024413 0.0096598789 1.4199834e-038
0.010509983 0.050499413 0.0091385245 1.4198395e-038
0.012649991 0.050496947 0.0095182769 1.447354e-038
0.014742203 0.050971907 0.0089954287 1.4748689e-038
0.016828731 0.05144687 0.0084715709 1.4285562e-038
0.018962413 0.051444378 0.0088501759 1.3454007e-038
0.021095723 0.051441882 0.0092287138 1.1885961e-038
0.02317062 0.051916834 0.0087027736 1.3084141e-038
0.025300637 0.051914323 0.0090807155 1.3729509e-038
0.027366892 0.052389298 0.0085531846 1.3914971e-038
0.029493593 0.052386787 0.0089305341 1.4007164e-038
0.031688683 0.051906768 0.010214165 1.4100793e-038
0.033817418 0.05190425 0.010591872 1.4192986e-038
0.035871789 0.052379228 0.010062225 1.4192984e-038
0.037843861 0.053331662 0.0086239241 1.4377375e-038
0.03996373 0.053329151 0.0090000518 1.4285184e-038
0.042083271 0.053326633 0.0093761235 1.4008594e-038
0.044202521 0.053324122 0.0097521469 1.4099714e-038
0.046321511 0.053321611 0.010128122 1.4099717e-038
0.048350252 0.053796604 0.009593986 1.3915324e-038
0.050466023 0.053794112 0.0099693984 1.3547264e-038
0.052486248 0.05426912 0.0094337538 1.2715357e-038
0.054598853 0.054266643 0.0098086149 9.6736706e-039
0.056610577 0.054741707 0.0092714205 1.8432176e-039
0.05872006 0.054739248 0.0096457377 1.0167429e-039
0.060829267 0.054736804 0.01002001 7.4088331e-040
0.062829718 0.055211876 0.0094808862 6.4868768e-040
0.064935826 0.055209462 0.0098546222 4.6429642e-040
0.066927895 0.055684574 0.0093140267 1.0167485e-039
0.069030941 0.055682179 0.0096872374 9.2455571e-040
0.07113377 0.055679802 0.010060418 9.2419417e-040
0.073236436 0.05567744 0.010433577 4.7052604e-039
0.07521446 0.056152638 0.0098905303 1.2543662e-038
0.077314153 0.056150313 0.01026319 1.2908075e-039
0.079154141 0.057103116 0.0088015124 1.7499906e-039
0.081248209 0.057100844 0.0091731921 1.0973829e-038
0.083342128 0.057098586 0.0095448606 1.419599e-038
0.085573673 0.056618813 0.010835074 5.465064e-044
0.087529652 0.057094153 0.010288186 8.8518889e-039
0.089480251 0.057569522 0.0097403601 1.152627e-038
0.091571093 0.057567369 0.010111548 2.6766062e-039
0.093661852 0.057565238 0.010482728 8.8515498e-039
0.095752545 0.057563137 0.01085392 2.6737321e-039
0.097689584 0.058038633 0.010303754 2.6726545e-039
0.099465027 0.058991756 0.0088307783 1.383187e-038
0.10154767 0.058989752 0.0092005953 7.379588e-040
0.10379189 0.058510184 0.01049326 1.2539351e-038
0.10604133 0.058030676 0.011786824 5.5317756e-039
0.10796243 0.058506344 0.011233933 2.4889863e-039
0.11004773 0.058504473 0.011604302 1.2893712e-039
0.11178876 0.059457835 0.010125343 1.3822842e-039
0.11369406 0.059933629 0.009569712 1.3279062e-038
0.11559414 0.060409468 0.0090131797 4.0917915e-043
0.11784919 0.059930172 0.010307878 1.1971755e-039
0.11992696 0.059928503 0.010677032 1.0787996e-038
0.12200475 0.059926879 0.01104622 1.2817365e-038
0.12408271 0.059925295 0.011415461 4.0566526e-039
0.12616083 0.059923761 0.011784764 1.8373405e-040
0.1284325 0.05944467 0.013082549 5.3480906e-039
0.13031764 0.059920829 0.012523551 1.3370177e-038
0.131999 0.060874637 0.011034306 3.6847564e-040
0.13407259 0.060873292 0.011402924 4.5924614e-040
0.13614644 0.060872003 0.011771616 1.3002119e-038
0.13822055 0.060870763 0.012140384 4.4261371e-039
0.14029494 0.060869575 0.012509234 1.3554923e-038
0.1421577 0.06134608 0.011946395 4.9045446e-044
0.1444446 0.060867365 0.013247199 1.8373405e-040
0.14608549 0.061821595 0.011750935 1.1802504e-038
0.14815587 0.06182063 0.012119215 6.5480589e-039
0.15022662 0.061819732 0.012487598 1.1157487e-038
0.15252295 0.061341275 0.013790172 6.4551542e-039
0.15436935 0.061818108 0.013224695 7.104132e-039
0.1562109 0.062295008 0.012658391 1.2541495e-038
0.15804757 0.062771983 0.012091262 1.1996656e-039
0.16082264 0.061338533 0.015267208 6.2671911e-039
0.0032277927 0.032334644 0.037038796 9.9567987e-039
0.0047376826 0.042407036 0.018560644 9.6805537e-039
0.0065799579 0.046722475 0.010853589 1.3741015e-038
0.0086518675 0.047679648 0.009436015 1.4384581e-038
0.010755137 0.048157055 0.0089166611 1.4383142e-038
0.012897797 0.048154708 0.0092969537 1.4199471e-038
0.014944717 0.049111899 0.0078748763 1.4840164e-038
0.01708138 0.049109537 0.0082540922 1.4469584e-038
0.019164667 0.049586926 0.0077311695 1.2900459e-038
0.021353647 0.049104791 0.0090123266 1.2992652e-038
0.023489296 0.049102407 0.0093913488 1.4007161e-038
0.02556362 0.049579788 0.0088668205 1.4284108e-038
0.027632281 0.050057177 0.0083412863 1.428518e-038
0.029695325 0.050534591 0.0078146979 1.4009668e-038
0.031890646 0.050052386 0.0090970099 1.4010027e-038
0.034019396 0.050049987 0.009474799 1.4102218e-038
0.036073491 0.050527412 0.0089466199 1.410294e-038
0.038045071 0.051484596 0.0075111836 1.3826353e-038
0.040164866 0.051482204 0.0078873783 1.3825632e-038
0.04220216 0.051959611 0.0073562674 1.4194415e-038
0.044318751 0.051957231 0.0077318959 1.3825632e-038
0.046435058 0.051954847 0.0081074722 1.3916752e-038
0.048641302 0.05147266 0.0093916804 1.3547971e-038
0.050666839 0.051950101 0.0088584907 1.4007876e-038
0.052686796 0.052427545 0.0083243176 1.3363229e-038
0.0547994 0.052425191 0.0086992532 1.3544029e-038
0.057012536 0.051943023 0.0099846944 1.1607582e-038
0.059127271 0.051940676 0.010360014 5.3372502e-039
0.061135627 0.052418169 0.0098237991 1.4766323e-039
0.063247249 0.052415852 0.010198582 1.0167429e-039
0.06513574 0.053373232 0.0087483935 7.4088331e-040
0.067241602 0.053370941 0.0091221705 1.0167485e-039
0.069347262 0.053368669 0.009495914 8.3200135e-040
0.07157214 0.052886564 0.010783494 9.2419417e-040
0.073680043 0.052884314 0.011157654 7.5651087e-039
0.075538412 0.053841766 0.0097022168 1.1437669e-038
0.07764072 0.053839561 0.010075409 1.5674e-039
0.079742864 0.05383737 0.010448579 1.6577963e-039
0.081712171 0.054315049 0.0099055283 9.1267045e-039
0.08381135 0.0543129 0.010278199 1.253648e-038
0.085772485 0.054790661 0.0097336695 3.6740084e-040
0.088009387 0.054308664 0.011023521 1.1986535e-038
0.089821704 0.055266339 0.0095599443 8.6656928e-039
0.092061095 0.054784421 0.010850225 3.0460809e-039
0.094008565 0.055262264 0.010303374 1.3002473e-038
0.09610188 0.055260256 0.010675091 9.1887344e-041
0.098041259 0.055738162 0.010126844 7.7444749e-039
0.099975348 0.056216098 0.0095776767 1.0327375e-038
0.10206321 0.056214187 0.0099484771 1.7524653e-039
0.10415109 0.05621231 0.010319304 1.38308e-038
0.10623896 0.056210458 0.010690145 2.1205415e-039
0.10832687 0.056208644 0.01106102 7.4682468e-039
0.11041473 0.056206863 0.011431903 8.316286e-040
0.11215787 0.057164926 0.0099562407 3.5070843e-039
0.11424059 0.05716322 0.010326255 1.4103426e-038
0.11614567 0.057641443 0.0097720958 3.6740644e-040
0.11840621 0.057159919 0.011066385 1.8679309e-042
0.12048919 0.057158325 0.011436516 1.3002489e-038
0.12238663 0.057636674 0.01088107 1.1251478e-038
0.12446716 0.057635162 0.011250816 9.1901357e-041
0.12654789 0.057633698 0.01162063 9.213061e-040
0.12862878 0.057632275 0.011990489 3.4123593e-039
0.13070984 0.057630897 0.012360414 1.2910293e-038
0.1325922 0.058109473 0.011802424 5.465064e-044
0.13446951 0.058588099 0.011243571 1.1978958e-039
0.13634172 0.059066784 0.010683846 1.337126e-038
0.13841577 0.059065599 0.011052635 4.6137752e-040
0.1404901 0.059064467 0.011421513 1.4197065e-038
0.14256473 0.059063386 0.011790469 5.0446745e-044
0.14463963 0.059062351 0.012159513 1.8373405e-040
0.14671488 0.059061375 0.012528649 1.30014e-038
0.14879048 0.059060454 0.012897886 3.2229865e-044
0.15131211 0.058099747 0.015131675 1.2725886e-038
0.15316838 0.05857886 0.014569372 4.6980423e-039
0.15479161 0.059537981 0.013073003 8.3026724e-039
0.15640476 0.060497146 0.011574939 6.6395581e-039
0.15847446 0.060496513 0.011943299 3.8733375e-039
0.16172507 0.05809629 0.016984791 3.0425146e-039
0.0033430979 0.031838898 0.033178095 8.75898e-039
0.0049089864 0.040995941 0.01652272 1.0695059e-038
0.0068208873 0.04436823 0.0106235 1.3833212e-038
0.0088949725 0.045330148 0.0092092752 1.4015081e-038
0.011043288 0.045327928 0.0095906556 1.4566455e-038
0.013145983 0.045807775 0.0090727136 1.4565375e-038
0.015243024 0.046287615 0.0085537583 1.3917488e-038
0.017334357 0.046767477 0.0080337375 1.2625308e-038
0.019420072 0.047247309 0.0075127594 1.3546184e-038
0.021611966 0.046762973 0.0087930709 1.3730573e-038
0.023750246 0.046760712 0.0091726407 1.4284462e-038
0.025826983 0.047240533 0.008650057 1.428518e-038
0.027898051 0.047720358 0.0081264675 1.4286613e-038
0.029963471 0.048200179 0.0076018646 1.4379526e-038
0.032092504 0.048197914 0.0079797804 1.4195134e-038
0.034221187 0.048195638 0.0083576366 1.4287688e-038
0.036349602 0.048193369 0.0087354369 1.4287688e-038
0.038323283 0.049155336 0.0073032826 1.4103297e-038
0.040445767 0.049153067 0.0076800287 1.4379884e-038
0.042485431 0.049632911 0.0071508549 1.3734513e-038
0.044604637 0.049630653 0.007527031 1.4194415e-038
0.046723604 0.049628392 0.0079031549 1.4194415e-038
0.048932731 0.049144015 0.00918651 1.4010022e-038
0.051053785 0.049141761 0.0095630139 1.4285536e-038
0.053174548 0.049139511 0.0099394694 1.4192984e-038
0.05519665 0.049619403 0.0094071962 1.4097913e-038
0.057314232 0.049617168 0.0097830966 1.363658e-038
0.059431605 0.049614947 0.01015896 1.2345145e-038
0.06154874 0.049612731 0.010534789 3.2236465e-039
0.063447542 0.050574806 0.0090894252 1.4766323e-039
0.065335497 0.051536936 0.007642094 1.2011412e-039
0.067441344 0.051534764 0.0080159381 9.2419417e-040
0.069663972 0.051050458 0.0093017444 9.2419697e-040
0.071891725 0.050566126 0.010588519 6.4760868e-040
0.073879987 0.051046178 0.010050245 1.0607562e-038
0.075862736 0.051526215 0.0095110536 9.8703414e-039
0.078095287 0.051041961 0.010798655 3.7206856e-040
0.080072381 0.051522035 0.010258481 1.1982503e-039
0.082044117 0.052002143 0.0097173676 1.1894712e-038
0.084010348 0.052482266 0.0091752857 9.2210372e-039
0.086109407 0.052480251 0.0095480159 9.2128928e-040
0.088208288 0.05247825 0.0099207275 1.3369829e-038
0.090307124 0.052476276 0.010293446 5.5339224e-039
0.092405826 0.052474324 0.010666154 6.6395497e-039
0.094355665 0.05295461 0.010121182 1.2449301e-038
0.096451603 0.052952711 0.010493435 4.4841551e-044
0.098547444 0.052950833 0.010865681 1.3000691e-038
0.10064325 0.052948985 0.011237936 5.1654944e-039
0.10273904 0.052947167 0.011610208 1.291141e-039
0.10467277 0.05342757 0.01106251 1.4107031e-038
0.10660118 0.053908002 0.010513879 1.7521163e-039
0.10852432 0.054388475 0.0099643357 1.0142275e-038
0.11095215 0.053422388 0.012178076 3.6776518e-040
0.11287276 0.053902928 0.011628121 7.5622501e-039
0.11478806 0.054383505 0.011077244 1.1245731e-038
0.11669809 0.05486412 0.010525458 9.2058022e-040
0.11878356 0.054862563 0.010896057 2.7988555e-040
0.12068586 0.055343289 0.010342889 1.2265647e-038
0.12276888 0.055341814 0.0107131 1.3865624e-039
0.12485205 0.055340379 0.011083361 1.3830045e-039
0.12693536 0.055338982 0.011453671 3.0428832e-039
0.12901881 0.055337634 0.011824038 1.0152856e-039
0.13110252 0.055336319 0.012194471 1.1803594e-038
0.1329872 0.055817269 0.011638379 4.3440252e-044
0.13486683 0.056298267 0.011081405 9.2210512e-039
0.13694586 0.056297094 0.011451097 2.4921967e-039
0.13902515 0.056295961 0.011820856 4.6103981e-040
0.1411047 0.056294877 0.012190696 1.0973832e-038
0.14318457 0.056293845 0.012560617 4.621118e-040
0.14504966 0.056775089 0.012001209 1.659583e-039
0.14712748 0.056774158 0.012370832 1.1618125e-038
0.14942607 0.056291047 0.013670914 4.3440252e-044
0.15173039 0.055807989 0.01497205 1.3095028e-038
0.15381467 0.055807214 0.015342927 1.8407022e-039
0.15544268 0.056770962 0.013850348 9.9596812e-039
0.15706056 0.057734802 0.012355963 7.3868748e-040
0.15913552 0.057734195 0.012725282 5.9956334e-039
0.16286525 0.054357953 0.019627199 1.1993209e-039
0.0035534203 0.029903814 0.032012247 8.5749419e-039
0.0051494166 0.038620625 0.016279446 1.0698646e-038
0.0070997775 0.041524846 0.01128705 1.3831057e-038
0.0092188865 0.042007133 0.010773554 1.4382063e-038
0.011375196 0.042005029 0.011156432 1.465505e-038
0.013440102 0.042971727 0.009743467 1.4192633e-038
0.015542157 0.043453999 0.0092269219 1.2993009e-038
0.017587736 0.044420663 0.0078105628 1.3359992e-038
0.019729353 0.044418544 0.0081908107 1.3453264e-038
0.021870643 0.044416413 0.0085709952 1.4191904e-038
0.024011575 0.044414274 0.0089511126 1.428589e-038
0.026152208 0.044412129 0.0093311742 1.4470282e-038
0.028228335 0.04489442 0.0088099502 1.4287331e-038
0.030232005 0.045861091 0.0073861293 1.4103297e-038
0.032294199 0.04634336 0.0068624765 1.4287688e-038
0.034422897 0.046341214 0.0072404072 1.4379884e-038
0.036626048 0.045854647 0.0085213408 1.4287688e-038
0.038679339 0.046336915 0.0079961047 1.4103293e-038
0.040807106 0.04633477 0.0083738677 1.4011097e-038
0.042851821 0.046817083 0.0078470632 1.4287685e-038
0.044976324 0.046814941 0.0082242489 1.4287685e-038
0.047012515 0.047297236 0.0076959804 1.3826707e-038
0.049133815 0.047295097 0.0080725998 1.3734513e-038
0.051254839 0.047292974 0.0084491782 1.382599e-038
0.053471602 0.04680641 0.009732537 1.4101499e-038
0.05559478 0.046804294 0.010109503 1.3824912e-038
0.057717666 0.046802178 0.010486417 1.3731287e-038
0.059840299 0.046800073 0.010863297 1.3360712e-038
0.061962724 0.04679798 0.011240143 1.2527754e-038
0.06386631 0.047764797 0.0097985789 3.6799163e-039
0.065759055 0.048731636 0.0083551034 1.2929627e-039
0.067870155 0.04872958 0.0087299533 1.108584e-039
0.070098318 0.048243079 0.01001538 1.2004237e-039
0.072211683 0.048241042 0.010390647 2.0305417e-039
0.074202314 0.048723485 0.009854354 3.7826104e-039
0.076062225 0.049690451 0.0084050335 4.335787e-039
0.078294978 0.049203996 0.0096913092 2.0305417e-039
0.08040233 0.049202029 0.010065548 2.1220129e-039
0.082509562 0.049200077 0.010439776 4.7963966e-039
0.084345028 0.050167102 0.0089862086 4.612004e-039
0.086446688 0.050165195 0.0093594715 2.5829826e-039
0.088548213 0.050163303 0.0097327195 5.7179858e-039
0.090649642 0.050161436 0.010105968 4.2432214e-039
0.092750974 0.050159585 0.010479212 8.3090693e-040
0.094703175 0.050642256 0.0099362098 7.0101749e-039
0.096801698 0.05064046 0.010308981 8.3001697e-039
0.098900139 0.050638683 0.010681756 1.0696878e-038
0.10084156 0.051121455 0.010136832 1.8552631e-040
0.10309698 0.050635207 0.011427339 8.2068852e-039
0.10503305 0.051118042 0.010881502 1.337055e-038
0.10712877 0.051116381 0.01125386 5.348469e-039
0.1090569 0.051599253 0.010706697 1.1156791e-038
0.11132029 0.05111314 0.011998642 8.3901919e-039
0.11324319 0.051596079 0.011450587 1.1710305e-038
0.11533637 0.051594537 0.011822566 1.1895435e-038
0.11742964 0.051593032 0.012194587 2.7662935e-039
0.11934215 0.052076072 0.011644745 1.5674e-039
0.12124949 0.052559156 0.011094008 1.0973843e-038
0.12333773 0.052557755 0.011465196 8.327048e-040
0.12542614 0.052556396 0.011836439 1.3848038e-039
0.12751472 0.052555069 0.012207737 8.7608073e-039
0.12921518 0.053522862 0.01073052 3.3216211e-039
0.13129883 0.053521622 0.011100989 6.3633552e-039
0.13318323 0.054004949 0.010546319 6.0874745e-039
0.13526461 0.054003786 0.010916431 9.4994233e-039
0.13714151 0.054487202 0.010360479 4.6284608e-040
0.13922073 0.054486129 0.010730267 1.1996923e-039
0.14151026 0.054000571 0.012027215 2.7695207e-039
0.1435927 0.053999592 0.01239763 7.1019824e-039
0.14546014 0.054483194 0.011840111 9.5908987e-039
0.14754058 0.054482307 0.012210222 2.7736881e-040
0.14962137 0.054481469 0.012580434 6.9172478e-039
0.15192583 0.053996142 0.013880186 1.2634412e-038
0.15401006 0.053995408 0.014251076 3.7822195e-039
0.15586612 0.05447926 0.013691681 8.2994494e-039
0.15748611 0.05544772 0.012200611 2.4907702e-039
0.15956363 0.055447143 0.012570404 9.1310065e-039
0.16400737 0.050601136 0.02225847 4.0584602e-039
0.0036337078 0.029915437 0.02726985 8.575302e-039
0.0053199381 0.037213977 0.01424415 1.1250737e-038
0.0072661191 0.040132232 0.0092597343 1.3368637e-038
0.0094632432 0.039643567 0.010538287 1.4102956e-038
0.011579081 0.040128283 0.010025714 1.4468142e-038
0.013689242 0.040613037 0.0095120817 1.2715344e-038
0.015745297 0.041584458 0.0081005506 1.3175601e-038
0.017790377 0.042555887 0.0066870674 1.4096837e-038
0.019931957 0.042553887 0.0070673861 1.455961e-038
0.022073247 0.042551883 0.0074476451 1.4468847e-038
0.024214186 0.042549871 0.0078278482 1.4378086e-038
0.026354805 0.042547856 0.0082079843 1.4194415e-038
0.028495066 0.042545836 0.0085880533 1.4195493e-038
0.030567952 0.043030564 0.0080677681 1.4472078e-038
0.03263519 0.043515269 0.0075465292 1.4286968e-038
0.034769192 0.04351325 0.0079254881 1.4011101e-038
0.036902882 0.043511227 0.0083043836 1.4103297e-038
0.038958542 0.043995935 0.0077810884 1.4287685e-038
0.041008629 0.044480655 0.0072568022 1.4472075e-038
0.043136075 0.044478636 0.0076345913 1.4103293e-038
0.045434542 0.043503132 0.0098194256 1.419549e-038
0.047478423 0.043987859 0.0092940405 1.3826707e-038
0.049516693 0.044472594 0.008767657 1.3642316e-038
0.051549375 0.044957366 0.0082402378 1.3918185e-038
0.053865336 0.043981832 0.010428239 1.4010022e-038
0.05599378 0.043979827 0.010806218 1.4193695e-038
0.058121942 0.043977834 0.011184148 1.4007876e-038
0.060041375 0.044949409 0.0097482949 1.3268873e-038
0.062270667 0.044460636 0.011032578 1.3450407e-038
0.064285934 0.044945467 0.010502093 7.3640911e-039
0.066183448 0.045917053 0.0090624131 2.396062e-039
0.068185002 0.046401884 0.0085295513 1.1089372e-039
0.070298545 0.046399958 0.008904919 1.1082281e-039
0.07241185 0.046398047 0.0092802569 1.1085896e-039
0.074402206 0.046882924 0.0087454244 1.0167485e-039
0.076387048 0.047367845 0.008209575 1.0167485e-039
0.078494571 0.047365982 0.0085839145 1.0174702e-039
0.080601886 0.047364127 0.008958213 1.1089456e-039
0.082842514 0.046875473 0.010244593 1.016387e-039
0.084816143 0.047360476 0.0097067952 9.2419137e-040
0.08692307 0.047358673 0.01008106 1.3844493e-039
0.088888489 0.047843684 0.0095418692 1.1082169e-039
0.090992518 0.047841925 0.0099156462 1.1082155e-039
0.092949823 0.04832698 0.0093750432 1.2004125e-039
0.09505105 0.048325259 0.0097483434 5.5468858e-040
0.097152159 0.048323568 0.010121644 7.3907844e-040
0.09925326 0.048321892 0.010494955 1.2014733e-039
0.10135432 0.048320249 0.010868274 3.9680513e-039
0.10329538 0.048805427 0.010324851 1.4769966e-039
0.10539373 0.04880384 0.010697719 1.3844493e-039
0.10749205 0.048802268 0.011070598 1.3837276e-039
0.1095904 0.048800725 0.011443498 7.3799243e-040
0.11185927 0.048312392 0.012735039 5.5346287e-039
0.11378717 0.048797723 0.012189366 1.4773147e-039
0.11570983 0.049283121 0.01164273 6.4578279e-040
0.11762727 0.049768526 0.011095237 1.4752029e-039
0.11972059 0.049767137 0.011467338 1.5681188e-039
0.12181398 0.049765777 0.01183947 9.245501e-040
0.12390749 0.049764458 0.012211647 9.2419417e-040
0.12581207 0.050250001 0.01166195 1.108584e-039
0.12790325 0.05024875 0.012033757 1.10894e-039
0.12980023 0.050734375 0.011482753 9.245473e-040
0.13188906 0.050733197 0.011854183 1.2004125e-039
0.13377848 0.051218893 0.011301884 9.245473e-040
0.13586514 0.051217806 0.011672983 7.3980011e-040
0.13795199 0.051216748 0.012044137 1.2007783e-039
0.13962388 0.052189436 0.010564875 2.3096075e-039
0.14191623 0.051701628 0.011860924 2.493626e-039
0.14378837 0.052187543 0.011305679 3.7843578e-039
0.14565547 0.0526735 0.01074956 4.6389705e-040
0.14773588 0.052672666 0.011119708 7.4051757e-040
0.14981663 0.052671876 0.011489941 6.4868488e-040
0.15189773 0.052671131 0.011860263 6.4760868e-040
0.15420541 0.052183587 0.01315921 6.4760868e-040
0.15651882 0.051696096 0.014459204 8.3199854e-040
0.15837507 0.052182343 0.013901334 7.3980291e-040
0.16046052 0.052181792 0.014272558 6.4760588e-040
0.16491465 0.047312733 0.023948139 9.245501e-040
0.0038427636 0.027989432 0.026109422 7.8373768e-039
0.0055252314 0.035322875 0.013104755 1.1250372e-038
0.0074698925 0.038255151 0.0081287883 1.4007887e-038
0.0096672475 0.037764292 0.0094060153 1.4006804e-038
0.011826232 0.037762441 0.0097895265 1.3636226e-038
0.013938777 0.038249593 0.0092778876 1.2990133e-038
0.016045697 0.038736787 0.0087651946 1.3911368e-038
0.018095583 0.039712969 0.0073555224 1.400464e-038
0.020188473 0.040200118 0.006840378 1.4191184e-038
0.022332415 0.04019824 0.0072211921 1.4653237e-038
0.024475999 0.040196355 0.0076019391 1.465467e-038
0.026681274 0.039705429 0.0088805333 1.4379164e-038
0.028762184 0.040192578 0.0083632469 1.4379164e-038
0.030837469 0.040679719 0.0078449622 1.4379884e-038
0.032907099 0.041166898 0.0073256195 1.4287688e-038
0.035043731 0.041164998 0.0077051222 1.4379884e-038
0.037255354 0.04067402 0.0089848861 1.4195493e-038
0.039238147 0.041650254 0.0075632185 1.3734512e-038
0.041371182 0.041648362 0.0079420805 1.419549e-038
0.04350394 0.041646462 0.0083208941 1.382671e-038
0.045722298 0.04115551 0.0096018054 1.382671e-038
0.047768556 0.041642677 0.0090783611 1.4287685e-038
0.049809217 0.042129856 0.0085539222 1.4011097e-038
0.051844306 0.042617034 0.0080284998 1.4102578e-038
0.054163374 0.041637026 0.010214202 1.4194415e-038
0.056195281 0.042124223 0.0096882172 1.4009302e-038
0.058323398 0.042122353 0.010066219 1.3639446e-038
0.060346846 0.042609569 0.0095387436 1.3915317e-038
0.062471867 0.042607721 0.0099162012 1.3634784e-038
0.064596623 0.042605881 0.010293622 1.298907e-038
0.066608727 0.043093156 0.0097640939 2.6697412e-039
0.068615302 0.043580417 0.0092336386 1.3844366e-039
0.070734128 0.043578614 0.0096100196 1.0174716e-039
0.072732329 0.044065904 0.0090780929 9.2527597e-040
0.074848101 0.044064116 0.0094539449 9.2527597e-040
0.076712251 0.045040537 0.0080113299 5.5721232e-040
0.078694031 0.045527909 0.0074764565 1.0174702e-039
0.080801323 0.045526173 0.0078508258 8.3308034e-040
0.083042175 0.045035321 0.0091358759 5.5649065e-040
0.08528813 0.044544514 0.010421798 1.1089456e-039
0.087261364 0.045031924 0.0098854937 1.2007811e-039
0.089229152 0.045519385 0.0093481839 1.293327e-039
0.091191545 0.046006847 0.0088099763 2.215991e-039
0.093295462 0.046005215 0.0091838129 1.6624641e-039
0.095249742 0.046492714 0.0086441897 1.2922508e-039
0.097503036 0.046002012 0.0099314824 1.383729e-039
0.099606745 0.046000447 0.010305319 1.5713194e-039
0.10155286 0.046488009 0.0097642839 4.6162667e-039
0.10365385 0.046486493 0.010137666 1.1092917e-039
0.1059176 0.045995872 0.011426872 1.2007811e-039
0.10802118 0.045994397 0.011800747 2.2152833e-039
0.1099567 0.046482071 0.011257889 7.3942036e-040
0.11205767 0.046480652 0.011631332 1.1715655e-038
0.11415868 0.046479259 0.0120048 4.2446129e-039
0.11625973 0.046477888 0.012378288 1.568109e-039
0.11818217 0.046965685 0.011833176 1.291532e-039
0.12009937 0.047453545 0.011287097 1.7528646e-039
0.1223794 0.046963107 0.012579385 1.4766435e-039
0.12429151 0.04745103 0.012032442 1.1078638e-039
0.12638775 0.04744982 0.012405172 1.2007811e-039
0.1282922 0.047937784 0.011856962 1.108584e-039
0.13038614 0.047936644 0.012229325 1.0163758e-039
0.13248028 0.047935542 0.012601746 1.8461351e-039
0.13437466 0.048423614 0.01205181 9.245501e-040
0.13626398 0.048911732 0.01150099 7.3980011e-040
0.13814823 0.049399886 0.010949299 1.10894e-039
0.14002746 0.049888108 0.010396682 4.7992412e-039
0.14232264 0.049398016 0.011691883 4.6461452e-040
0.14419714 0.049886327 0.011138473 1.0517116e-038
0.14628243 0.049885493 0.011509493 3.0478536e-039
0.14836803 0.049884703 0.011880588 9.2490883e-040
0.15023293 0.050373111 0.011325605 5.5649065e-040
0.15231663 0.050372411 0.011696421 5.5648785e-040
0.15440077 0.050371755 0.012067338 5.5648785e-040
0.15671436 0.049881987 0.013365952 8.3235727e-040
0.15857026 0.050370578 0.012809478 4.6429362e-040
0.16089007 0.049880903 0.014109261 5.5649065e-040
0.1658234 0.044010445 0.025629509 7.4016024e-040
0.0040187016 0.026554689 0.024057617 8.2050818e-039
0.0056947097 0.033923019 0.011073492 1.1336079e-038
0.0077118278 0.035886668 0.0078900307 1.3541158e-038
0.0098711327 0.03588495 0.0082736835 1.3540077e-038
0.012030087 0.035883218 0.0086572655 1.2066029e-038
0.014142416 0.036372822 0.0081471093 1.3080178e-038
0.016249053 0.036862455 0.0076358803 1.3542586e-038
0.018350028 0.037352052 0.0071237013 1.4189033e-038
0.020445347 0.037841652 0.0066105127 1.4559963e-038
0.022534996 0.038331248 0.0060963035 1.428517e-038
0.02467858 0.038329493 0.0064771324 1.4470635e-038
0.026821829 0.038327727 0.0068578944 1.4562832e-038
0.028964736 0.038325965 0.0072385967 1.4562476e-038
0.031107314 0.038324196 0.0076192394 1.4286968e-038
0.033179373 0.038813788 0.0071019009 1.4194771e-038
0.035391517 0.038320657 0.008380346 1.4194415e-038
0.037533149 0.038318884 0.0087608173 1.4010022e-038
0.039596297 0.03880848 0.0082418919 1.4286968e-038
0.041734606 0.038806707 0.0086217709 1.4102578e-038
0.043789156 0.039296336 0.0081012659 1.3918906e-038
0.046010427 0.038803171 0.0093813837 1.4011101e-038
0.048059076 0.039292809 0.0088598356 1.4011101e-038
0.050193585 0.039291043 0.0092390403 1.4103297e-038
0.052233703 0.039780669 0.0087160319 1.4102578e-038
0.054365009 0.039778918 0.0090946704 1.4193695e-038
0.056297183 0.040759932 0.0076670349 1.4378086e-038
0.05852475 0.040266812 0.0089482367 1.4284814e-038
0.060547911 0.040756468 0.0084222257 1.3914594e-038
0.062672891 0.040754747 0.0087997541 1.3821325e-038
0.06479764 0.040753029 0.0091772527 1.3266001e-038
0.06703487 0.040259924 0.01046019 8.3800563e-039
0.06893114 0.041241046 0.0090261512 2.3963941e-039
0.070934549 0.041730758 0.0084966496 1.0163898e-039
0.072932482 0.042220484 0.0079661906 9.2527738e-040
0.075171553 0.04172742 0.0092494786 8.3308034e-040
0.077163808 0.042217176 0.0087180212 8.3308175e-040
0.079150587 0.042706944 0.0081855953 9.2527738e-040
0.081394389 0.042213913 0.0094697475 8.3308175e-040
0.083509497 0.042212304 0.0098455958 5.5649065e-040
0.085624427 0.042210706 0.010221414 1.0167485e-039
0.087460801 0.043191958 0.0087768547 1.2007811e-039
0.089428306 0.043681849 0.0082410015 6.8289632e-039
0.091390476 0.044171724 0.007704258 4.8009985e-039
0.09364146 0.043678783 0.0089897476 1.0148344e-038
0.095598131 0.0441687 0.0084520504 1.2014733e-039
0.097854279 0.043675791 0.0097384788 1.4759232e-039
0.099805474 0.044165757 0.0091998354 4.7084469e-039
0.10206684 0.043672886 0.010487217 7.2920643e-039
0.10417309 0.043671463 0.010861602 1.4762791e-039
0.10627929 0.043670058 0.011235988 1.4759232e-039
0.1082198 0.044160116 0.010695495 2.1251854e-039
0.11015499 0.044650197 0.01015408 8.7646623e-039
0.1122559 0.044648871 0.010527566 1.162308e-038
0.11418325 0.045139011 0.0099847876 1.0167009e-039
0.11645791 0.0446463 0.011274636 1.5677517e-039
0.11838006 0.045136493 0.010730959 2.7712639e-039
0.12047859 0.045135278 0.011104096 8.2122242e-039
0.12257721 0.045134086 0.011477262 9.2263747e-039
0.12467593 0.045132924 0.011850467 3.3247936e-039
0.12658523 0.045623269 0.011304528 1.3840835e-039
0.1284894 0.046113621 0.010757755 3.7829397e-039
0.13058329 0.04611256 0.011130147 7.8430857e-039
0.13267735 0.046111528 0.011502607 8.765042e-039
0.13457145 0.046601985 0.010954097 2.9535336e-039
0.13646048 0.047092471 0.010404706 1.3840821e-039
0.13854989 0.047091547 0.010776393 1.3840821e-039
0.14063954 0.047090653 0.011148155 1.6610235e-039
0.14251871 0.047581259 0.010597073 4.6320061e-040
0.14460632 0.04758044 0.01096851 1.1162486e-038
0.14669424 0.047579661 0.011340026 3.232242e-039
0.1490012 0.047087461 0.012635952 7.4016024e-040
0.15087107 0.047578223 0.012083314 4.6501669e-040
0.15296005 0.047577564 0.0124551 6.4868768e-040
0.15504943 0.047576949 0.012826975 6.4868768e-040
0.15713917 0.047576372 0.01319894 6.4868768e-040
0.15899743 0.048067339 0.012644298 8.3308034e-040
0.16155472 0.047083888 0.014870374 8.3307754e-040
0.16673362 0.0406943 0.027302517 1.0171045e-039
0.0042604432 0.024137206 0.023788355 8.1132435e-039
0.005971238 0.031046778 0.011716116 1.0408362e-038
0.0079926625 0.033019818 0.0085392632 1.2248991e-038
0.010157287 0.033018224 0.0089239441 1.1511067e-038
0.012277722 0.033510275 0.0084167495 1.2250419e-038
0.014392443 0.034002323 0.007908538 1.3356768e-038
0.016501479 0.034494366 0.0073993132 1.4003564e-038
0.018708579 0.033999089 0.0086755231 1.4834402e-038
0.020757101 0.03498482 0.0072714761 1.4652159e-038
0.022908993 0.034983192 0.0076538697 1.4377366e-038
0.025060542 0.03498156 0.0080361888 1.4378439e-038
0.027211763 0.034979921 0.0084184483 1.4378439e-038
0.029297449 0.03547195 0.0079050586 1.4562832e-038
0.031377539 0.035963986 0.0073906668 1.4286246e-038
0.033451982 0.036456019 0.0068752691 1.4193692e-038
0.035593905 0.036454376 0.0072558746 1.4102218e-038
0.037811302 0.035959054 0.008533895 1.4286612e-038
0.039955273 0.035957415 0.0089148618 1.4471002e-038
0.04201781 0.036449451 0.0083973445 1.4378805e-038
0.044158511 0.036447812 0.0087777302 1.4011101e-038
0.046212479 0.036939856 0.0082586929 1.4011101e-038
0.04826083 0.037431937 0.0077386089 1.3918547e-038
0.050303623 0.037924003 0.0072175935 1.4102218e-038
0.052435204 0.037922371 0.0075963587 1.4102218e-038
0.05456648 0.037920751 0.0079750791 1.4193695e-038
0.05669751 0.03791913 0.0083537512 1.4101499e-038
0.058828279 0.037917521 0.0087323859 1.4284451e-038
0.060853831 0.038409613 0.0082083195 1.4467768e-038
0.062981419 0.038408011 0.0085863918 1.3729128e-038
0.064998507 0.038900126 0.0080608279 1.3081965e-038
0.067235976 0.038404834 0.0093424395 1.0961872e-038
0.06924732 0.03889697 0.0088158697 2.8548401e-039
0.071253113 0.039389148 0.0082882605 1.10894e-039
0.073253393 0.039881308 0.0077597275 8.3308034e-040
0.075371817 0.039879765 0.0081362054 1.0167485e-039
0.077489987 0.039878231 0.008512646 8.3308175e-040
0.079608008 0.039876711 0.0088890642 7.4088471e-040
0.081725836 0.039875206 0.0092654601 8.3308175e-040
0.083843566 0.039873715 0.0096418448 7.4088471e-040
0.085824303 0.04036596 0.0091098808 8.3236008e-040
0.087799609 0.04085822 0.0085769631 1.1089456e-039
0.089769475 0.041350503 0.008043088 2.4018017e-039
0.091878742 0.041349072 0.008418005 4.892855e-039
0.09398789 0.04134766 0.0087929107 9.6887948e-039
0.096096925 0.041346263 0.0091678053 1.3851569e-039
0.098053187 0.04183865 0.0086315013 1.6603159e-039
0.10015947 0.041837294 0.0090059303 8.3040779e-039
0.10226572 0.041835953 0.0093803629 3.5102597e-039
0.10453257 0.041340861 0.010667413 1.4759232e-039
0.10647808 0.041833334 0.010129251 1.7521444e-039
0.10858424 0.041832056 0.010503706 1.0608953e-038
0.11052184 0.04232455 0.0099642128 5.6310885e-039
0.11262535 0.042323317 0.010338224 1.0978791e-038
0.11472894 0.04232211 0.01071227 1.0167135e-039
0.11683256 0.042320926 0.01108633 1.3840821e-039
0.11875707 0.042813517 0.010544568 4.2471142e-039
0.12085819 0.042812388 0.010918219 5.1697698e-039
0.12295942 0.042811278 0.011291904 1.0056137e-038
0.12487362 0.043303963 0.01074836 1.572369e-039
0.12678264 0.043796699 0.010203857 1.2922508e-039
0.12887897 0.043795679 0.010576725 4.8907124e-039
0.13058524 0.04478221 0.009112265 4.9850254e-039
0.13287434 0.044287492 0.010403436 1.0424563e-038
0.13456774 0.04527409 0.008936733 1.2011062e-039
0.137063 0.04428567 0.011148594 1.6606704e-039
0.13895194 0.044778567 0.010600686 2.1220031e-039
0.14125259 0.044283975 0.01189399 3.1379347e-039
0.1431368 0.044776943 0.011345284 2.4911233e-039
0.14522967 0.044776183 0.011717696 1.0516406e-038
0.14732279 0.04477546 0.012090174 1.1103427e-039
0.14941627 0.044774767 0.012462735 5.5721232e-040
0.15151015 0.044774119 0.012835391 4.6501669e-040
0.15338011 0.045267273 0.01228426 6.4868768e-040
0.15547204 0.045266699 0.01265662 5.5649065e-040
0.15756445 0.045266163 0.013029089 7.4088331e-040
0.15942504 0.045759439 0.012476362 5.5721232e-040
0.16245523 0.043783892 0.016551631 8.3307754e-040
0.0044356063 0.022706952 0.021739203 7.836658e-039
0.0061763525 0.029153135 0.010575108 9.3938579e-039
0.0081967935 0.031135578 0.0074039251 1.0220701e-038
0.010361418 0.031134106 0.0077886842 1.0221057e-038
0.012481563 0.031628609 0.0072829649 1.1973482e-038
0.014642812 0.031627126 0.0076671094 1.3541158e-038
0.016803697 0.03162564 0.0080511868 1.3911368e-038
0.018964268 0.031624142 0.0084352046 1.4650367e-038
0.021069698 0.032118626 0.0079268515 1.4652515e-038
0.023226902 0.032117125 0.0083102621 1.4192974e-038
0.025383763 0.03211562 0.0086936094 1.4562476e-038
0.027477555 0.032610096 0.0081831813 1.4562832e-038
0.029565647 0.033104602 0.007671684 1.4378439e-038
0.031648129 0.033599082 0.0071592405 1.4378439e-038
0.033724949 0.034093563 0.0066457875 1.4378085e-038
0.035869539 0.03409205 0.007026948 1.4379164e-038
0.038013771 0.034090538 0.0074080415 1.4194771e-038
0.040236421 0.033593025 0.008685641 1.4471359e-038
0.042220019 0.034583513 0.0072730482 1.4194771e-038
0.04444468 0.034085996 0.0085510015 1.4286968e-038
0.046414383 0.035076492 0.0071359426 1.4194771e-038
0.048641138 0.034578983 0.0084142759 1.4286612e-038
0.05059696 0.035569515 0.0069966987 1.4562477e-038
0.052731179 0.035568021 0.0073760226 1.3732717e-038
0.054767817 0.036062535 0.0068554282 1.4009302e-038
0.056998767 0.03556503 0.0081345104 1.4008582e-038
0.059234791 0.035067506 0.0094145462 1.4284451e-038
0.061265334 0.035562064 0.0088928342 1.3914951e-038
0.063290328 0.036056608 0.0083701871 1.3820606e-038
0.065199256 0.037047181 0.0069443509 1.3541864e-038
0.067436919 0.036549702 0.0082246438 1.2341551e-038
0.069448017 0.037044276 0.0076995343 5.4294472e-039
0.07157205 0.037042838 0.0080770776 2.6711944e-039
0.073332369 0.038529512 0.0057422258 9.2455571e-040
0.075448126 0.038528096 0.0061183088 9.2455571e-040
0.07769008 0.038030658 0.0073993914 7.4052879e-040
0.079937175 0.037533227 0.0086813942 7.4052879e-040
0.082057625 0.037531842 0.0090583265 8.3308175e-040
0.084177978 0.037530463 0.0094352514 7.4088471e-040
0.086161077 0.038025133 0.0089052208 7.4088471e-040
0.088138774 0.038519826 0.0083742402 8.3308034e-040
0.090111017 0.039014529 0.0078422949 8.3307754e-040
0.092222907 0.039013214 0.0082177483 1.2011412e-039
0.094482332 0.03851587 0.0095020011 1.0167485e-039
0.096446335 0.039010625 0.0089686178 9.2419697e-040
0.098404981 0.039505396 0.0084342957 7.4088331e-040
0.10051385 0.039504144 0.0088092536 9.2489903e-040
0.10278098 0.039006863 0.010094915 1.9386838e-039
0.10473151 0.039501693 0.0095591806 1.1082155e-039
0.10684029 0.039500497 0.0099341571 1.6624655e-039
0.1089491 0.03949932 0.010309149 1.5691852e-039
0.11105788 0.039498162 0.010684147 1.0149325e-039
0.11299518 0.039993115 0.010146059 1.2915207e-039
0.11492721 0.040488061 0.009607099 1.4766337e-039
0.11703079 0.040486969 0.009981215 1.2926067e-039
0.11913449 0.040485904 0.010355365 1.385524e-039
0.12123823 0.040484857 0.010729536 1.2936801e-039
0.12315731 0.040979903 0.01018833 1.293327e-039
0.1250712 0.041474972 0.009646222 1.108584e-039
0.1269799 0.0419701 0.0091031455 1.016387e-039
0.12907618 0.041969165 0.0094760507 1.476998e-039
0.1309773 0.042464323 0.008931715 1.3855128e-039
0.13307126 0.042463437 0.0093042478 1.5695482e-039
0.13516542 0.042462584 0.009676829 1.200058e-039
0.13746315 0.041965686 0.010968182 1.3833731e-039
0.13935445 0.042460959 0.010422174 1.2918963e-039
0.14144935 0.042460192 0.010794941 1.2011314e-039
0.14333321 0.042955536 0.010247648 1.3851583e-039
0.14542608 0.042954836 0.010620087 9.2419417e-040
0.14751917 0.042954162 0.010992594 9.2455571e-040
0.14961261 0.042953528 0.011365188 6.4868768e-040
0.15170641 0.042952925 0.011737864 7.4088331e-040
0.15380058 0.042952359 0.012110628 4.6501669e-040
0.15589517 0.042951826 0.012483485 4.6501669e-040
0.15799016 0.042951331 0.012856435 4.6501669e-040
0.1600856 0.042950869 0.013229495 5.5721232e-040
0.16335726 0.040470012 0.01822459 7.4088051e-040
0.0046101063 0.021281268 0.019692775 7.9274089e-039
0.0064177215 0.026761148 0.010321639 9.3938551e-039
0.0084397793 0.028752983 0.0071565844 1.0496932e-038
0.010607056 0.028751642 0.0075418949 1.0128504e-038
0.012773998 0.028750293 0.0079271309 1.1789089e-038
0.014940582 0.028748941 0.0083123073 1.2711398e-038
0.017106801 0.028747581 0.0086974166 1.3542586e-038
0.01927267 0.028746214 0.0090824552 1.4281228e-038
0.021383166 0.029243141 0.0085765272 1.4651086e-038
0.023488 0.029740065 0.0080695823 1.4192974e-038
0.025587186 0.030236989 0.007561639 1.4193692e-038
0.027743667 0.030235611 0.0079450011 1.4655026e-038
0.029899858 0.030234233 0.0083283074 1.4655026e-038
0.031987384 0.030731153 0.0078182817 1.4839417e-038
0.034069248 0.031228106 0.0073071942 1.4655026e-038
0.036145501 0.03172503 0.0067951679 1.465467e-038
0.038216114 0.032221962 0.0062821284 1.4378439e-038
0.040438987 0.031722266 0.0075584091 1.4378439e-038
0.042503662 0.032219198 0.0070443153 1.4378085e-038
0.044646978 0.032217819 0.0074253306 1.4102574e-038
0.046789974 0.032216441 0.0078062899 1.4194771e-038
0.048932701 0.032215063 0.0081871971 1.428589e-038
0.050890699 0.03321033 0.0067730211 1.4009302e-038
0.053027533 0.033208959 0.0071528852 1.4009302e-038
0.055164076 0.033207592 0.0075327009 1.4193695e-038
0.057400592 0.032707904 0.0088114142 1.4192974e-038
0.059539258 0.032706544 0.0091916136 1.3915669e-038
0.061572209 0.033203516 0.0086718947 1.4467405e-038
0.063599594 0.033700529 0.0081511401 1.4280509e-038
0.065399855 0.035194185 0.0058278143 1.2897939e-038
0.067637764 0.034694523 0.0071067922 1.2157518e-038
0.069764674 0.0346932 0.0074849203 5.2439769e-039
0.07189133 0.034691881 0.0078630038 2.5793519e-039
0.073774964 0.035687283 0.0064355917 1.1085868e-039
0.075647831 0.036682665 0.0050063208 1.0167485e-039
0.078016728 0.035684697 0.007189732 6.4868909e-040
0.080266729 0.035185043 0.0084709413 8.3308175e-040
0.082521841 0.034685429 0.0097530149 5.5721372e-040
0.084512755 0.035182517 0.0092258789 6.4940935e-040
0.086498246 0.03567965 0.0086977333 5.5721372e-040
0.088478327 0.036176767 0.0081686862 7.4052879e-040
0.090595543 0.036175545 0.0085451491 7.4052879e-040
0.092857942 0.035675988 0.0098285526 8.3308175e-040
0.09497761 0.035674792 0.01020547 9.2419697e-040
0.096946694 0.036171969 0.0096744969 8.3200135e-040
0.098757133 0.037167523 0.0082342103 9.2527738e-040
0.10086861 0.037166376 0.0086096935 1.0170961e-039
0.10298009 0.037165247 0.0089851953 6.0835327e-039
0.1050915 0.037164133 0.0093606897 5.0715388e-039
0.10720292 0.037163038 0.0097361952 5.3484802e-039
0.1093143 0.037161965 0.010111708 8.3161739e-040
0.11142571 0.037160899 0.010487236 8.760443e-039
0.11353712 0.03715986 0.010862775 2.2149176e-039
0.11547418 0.037657209 0.010326207 6.1796856e-039
0.11758306 0.037656214 0.010701321 3.2287164e-039
0.11951225 0.038153637 0.01016333 2.7684627e-039
0.12161861 0.03815268 0.010538019 3.2294352e-039
0.12335507 0.039148495 0.0090847127 2.2152847e-039
0.12545633 0.039147589 0.0094585307 2.3071258e-039
0.12736741 0.03964508 0.0089174211 1.2011356e-039
0.12946633 0.039644219 0.0092908442 4.5208901e-039
0.13156536 0.039643385 0.0096643083 1.1085714e-039
0.13366464 0.039642576 0.010037828 4.7038451e-039
0.13576403 0.03964179 0.010411389 1.3840933e-039
0.13806726 0.03914265 0.011702327 1.0163926e-039
0.13996358 0.039640304 0.01115869 1.1085868e-039
0.14206378 0.039639603 0.011532446 1.016387e-039
0.14374113 0.040635724 0.01006873 8.3199854e-040
0.14583656 0.040635083 0.010441668 9.2419697e-040
0.14793226 0.040634464 0.010814674 7.4088331e-040
0.14980885 0.041132268 0.010267612 7.4088331e-040
0.15190263 0.04113172 0.010640316 8.3308034e-040
0.15399677 0.041131198 0.011013106 7.4088331e-040
0.15631872 0.040632319 0.012307543 6.4940795e-040
0.15841635 0.040631864 0.012680991 4.6501669e-040
0.16074714 0.040133055 0.013977051 4.6501669e-040
0.16449606 0.036643881 0.020812161 7.4088051e-040
0.0048179477 0.019359563 0.018534806 7.4671496e-039
0.0066227987 0.024865068 0.0091791078 9.8541074e-039
0.0086831674 0.026365671 0.0069064498 1.0497288e-038
0.010853097 0.026364457 0.0072923079 9.9444673e-039
0.013022713 0.026363235 0.0076781064 1.188093e-038
0.015191913 0.026362009 0.0080638267 1.3264218e-038
0.017360799 0.02636078 0.0084494874 1.3818099e-038
0.019476697 0.026860185 0.0079459921 1.400392e-038
0.021586932 0.02735956 0.0074415356 1.4189389e-038
0.023633592 0.028359551 0.006046094 1.4284455e-038
0.025729828 0.028858922 0.0055391453 1.4100779e-038
0.027820401 0.029358331 0.0050311349 1.4101498e-038
0.030103073 0.028355815 0.0071964338 1.428589e-038
0.032327503 0.027853943 0.008471638 1.4470635e-038
0.034343205 0.028853934 0.0070706792 1.4194048e-038
0.036421835 0.029353339 0.006560538 1.4378439e-038
0.038418286 0.030353345 0.0051561594 1.4655026e-038
0.040720597 0.02935084 0.0073248893 1.4470635e-038
0.042787664 0.029850215 0.0068127438 1.4470635e-038
0.045018129 0.029348332 0.0080890134 1.4101852e-038
0.047079273 0.029847715 0.0075758174 1.3733793e-038
0.049224623 0.029846471 0.0079572797 1.4009301e-038
0.051369704 0.029845223 0.0083386898 1.4193695e-038
0.053419381 0.03034462 0.0078234598 1.4378086e-038
0.055463441 0.030844018 0.0073072277 1.3824912e-038
0.057602383 0.030842789 0.0076875538 1.4008582e-038
0.059844121 0.030340914 0.0089658424 1.4468121e-038
0.061985198 0.030339688 0.0093465522 1.4006068e-038
0.064017609 0.030839108 0.00882826 1.3635139e-038
0.065933473 0.031839218 0.0074095204 1.3449671e-038
0.068065852 0.031838011 0.0077886917 1.2434091e-038
0.070198022 0.031836808 0.0081678256 8.1027645e-039
0.072329998 0.031835616 0.008546941 2.8555744e-039
0.074218407 0.032835733 0.0071233809 1.2011356e-039
0.076344661 0.032834556 0.007501483 8.3235727e-040
0.078597695 0.032332737 0.0087818131 9.2527738e-040
0.080726229 0.032331575 0.0091603287 6.4905342e-040
0.082986847 0.031829767 0.010442019 5.5685639e-040
0.084847942 0.032829944 0.0090136304 7.4052879e-040
0.086835779 0.033329476 0.008487463 8.3308175e-040
0.088818207 0.033829052 0.0079602934 9.2419697e-040
0.090938069 0.033827949 0.0083373003 1.0163898e-039
0.093203373 0.03332616 0.0096199065 1.10894e-039
0.095177487 0.033825774 0.0090912804 1.2011328e-039
0.097297035 0.033824705 0.0094682537 1.2929627e-039
0.099263072 0.034324322 0.0089382529 1.568109e-039
0.10137983 0.034323283 0.0093147531 1.3855128e-039
0.1034966 0.034322258 0.0096912533 3.68824e-039
0.10545188 0.034821924 0.0091593713 1.9365216e-039
0.10772994 0.034320254 0.010444257 4.6094704e-039
0.10984662 0.034319278 0.010820776 1.0145653e-039
0.11179395 0.034818996 0.010287508 4.0584602e-039
0.11373597 0.035318732 0.0097533092 5.5539764e-040
0.11567274 0.035818484 0.0092181824 4.1503055e-039
0.11795888 0.035316907 0.010504562 5.5504311e-040
0.11971052 0.036317412 0.0090568066 2.4911499e-039
0.12199944 0.035815835 0.010343753 4.8885908e-039
0.12373801 0.036816388 0.0088937022 1.3848024e-039
0.12584189 0.036815565 0.0092680305 1.2933284e-039
0.12794587 0.03681476 0.0096423961 2.9532015e-039
0.12985684 0.037314665 0.0091027729 5.1655337e-039
0.1319585 0.037313912 0.0094767511 5.6257915e-039
0.13406037 0.037313174 0.0098507777 7.7430554e-039
0.13616242 0.037312467 0.010224856 1.7514213e-039
0.1380609 0.037812468 0.0096830614 1.1997021e-039
0.1403672 0.037311114 0.010973178 1.016387e-039
0.14226085 0.037811171 0.010430556 1.108584e-039
0.14414945 0.03831128 0.0098869987 1.016387e-039
0.14624749 0.038310695 0.010260448 8.3236008e-040
0.14834578 0.03831014 0.010633949 8.3236008e-040
0.15022478 0.038810305 0.010088783 7.4088331e-040
0.1525435 0.038309108 0.011381209 7.4088331e-040
0.15464292 0.038308639 0.011754967 7.4088331e-040
0.15674275 0.038308192 0.012128811 7.4088331e-040
0.15884294 0.038307779 0.012502741 8.3308034e-040
0.1609436 0.038307395 0.012876775 6.4940795e-040
0.16516554 0.033800706 0.021545362 8.3308034e-040
0.0050940886 0.016431965 0.019145424 6.6373903e-039
0.0069384202 0.021460142 0.01069098 9.6700762e-039
0.0089664534 0.023470778 0.0075386763 9.8537164e-039
0.011141717 0.02346969 0.0079255663 9.8529919e-039
0.013271727 0.02397152 0.007426165 1.0958975e-038
0.015396073 0.024473354 0.0069257468 1.2250068e-038
0.017615139 0.023969322 0.0081986561 1.2803593e-038
0.019786321 0.023968216 0.0085848048 1.3819172e-038
0.021846101 0.024973005 0.0071946084 1.4373424e-038
0.023894884 0.025977753 0.0058025122 1.4559963e-038
0.025993526 0.02647958 0.0052975118 1.4468841e-038
0.028150029 0.026478466 0.0056810416 1.4378085e-038
0.03043849 0.025471479 0.0078445151 1.4562476e-038
0.032599643 0.025470357 0.0082288682 1.4378439e-038
0.034688964 0.02597218 0.0077222064 1.4655026e-038
0.03669852 0.026976939 0.0063231178 1.4470635e-038
0.038773894 0.027478792 0.0058139265 1.4470635e-038
0.041002579 0.0269747 0.0070885755 1.4286243e-038
0.043072022 0.027476557 0.0065783262 1.4286243e-038
0.045135848 0.027978383 0.0060671307 1.4010378e-038
0.047281504 0.027977269 0.0064487234 1.4102578e-038
0.049516916 0.027473208 0.0077245198 1.4010022e-038
0.051664613 0.02747209 0.0081064776 1.4193695e-038
0.053812064 0.02747098 0.0084883943 1.3824912e-038
0.055861153 0.027972825 0.0079745837 1.4009302e-038
0.0580054 0.027971718 0.0083559342 1.4100779e-038
0.060149334 0.027970616 0.0087372325 1.400679e-038
0.062187057 0.028472476 0.0082214028 1.3729128e-038
0.064219207 0.028974343 0.0077045821 1.3542941e-038
