# .PCD v0.7 - Point Cloud Data file format
VERSION 0.7
FIELDS x y z rgb
SIZE 4 4 4 4
TYPE F F F F
COUNT 1 1 1 1
WIDTH 954
HEIGHT 1
VIEWPOINT 0 0 0 1 0 0 0
POINTS 954
DATA ascii
0.11337275 0.049082786 0.04208263 6.6276345e-039
0.11593289 0.047566231 0.045168601 5.0646276e-039
0.11869484 0.045544356 0.049167335 4.6965681e-039
0.13494843 0.040487193 0.060828239 2.2141258e-039
0.13762671 0.038970727 0.063935377 1.937539e-039
0.14011146 0.03795962 0.066131264 1.7531449e-039
0.14218259 0.037959144 0.066499978 1.7531477e-039
0.14468387 0.036948036 0.068698876 1.7531449e-039
0.14763117 0.034926329 0.072730735 1.9375376e-039
0.15037976 0.033409983 0.075850412 2.1219288e-039
0.15292183 0.032398932 0.078056611 1.9375376e-039
0.15524937 0.03189325 0.079347819 2.029736e-039
0.15689802 0.032903548 0.077887803 2.2141258e-039
0.15853649 0.033913847 0.076426044 2.0304563e-039
0.15969782 0.035934828 0.073125765 2.0304563e-039
0.16201909 0.035429236 0.074415907 2.0304563e-039
0.16291335 0.037955586 0.070191331 1.6623926e-039
0.16523026 0.037450012 0.071480781 1.9382564e-039
0.16608834 0.03997644 0.067249745 1.6623926e-039
0.16988166 0.036439005 0.07406275 1.9389781e-039
0.17271507 0.034922879 0.077197753 2.0304534e-039
0.17808597 0.028353605 0.089552298 2.0304534e-039
0.1794506 0.029869456 0.087165162 2.0311737e-039
0.18157218 0.029869389 0.087543115 2.0304534e-039
0.18447465 0.028353404 0.090690441 2.1226491e-039
0.18686843 0.02784805 0.091993719 2.1226505e-039
0.18979901 0.026332125 0.095146082 2.2148461e-039
0.19194216 0.026332179 0.095527962 2.1226491e-039
0.19219092 0.029869497 0.089435108 3.5059381e-039
0.19185634 0.034417506 0.081484824 5.0743386e-039
0.19230282 0.037449572 0.076303989 7.2794723e-039
0.19411182 0.037955094 0.075749621 9.2036989e-039
0.19676071 0.036944639 0.077975214 1.0495518e-038
0.20610797 0.027849397 0.095422439 3.0399166e-039
0.0036746711 0.034173798 0.044232257 5.072175e-039
0.0055784062 0.036710829 0.040194184 7.8380438e-039
0.0074552223 0.03924787 0.03615132 2.3063089e-039
0.009390451 0.040769793 0.03386955 5.25586e-039
0.011218652 0.043306842 0.029818028 4.980701e-039
0.013163999 0.044321183 0.02841346 1.1803175e-038
0.015047677 0.045843117 0.026122518 1.3923676e-038
0.017128512 0.045334768 0.027368113 7.5618115e-039
0.01938244 0.043303695 0.031270608 4.7959426e-039
0.021539927 0.042287737 0.033405237 9.5890377e-039
0.023462348 0.0433021 0.031996526 1.3645644e-038
0.025501817 0.043301299 0.032359391 1.2539301e-038
0.027407639 0.044315636 0.030947782 2.3977814e-039
0.029441163 0.044314835 0.03130959 9.6812348e-039
0.031474389 0.044314034 0.031671353 1.5581755e-038
0.033581898 0.043805659 0.032921687 4.7026694e-039
0.035539873 0.044312429 0.032394692 3.1353437e-039
0.037492208 0.044819199 0.031866714 1.5581036e-038
0.039521545 0.044818398 0.032227777 1.0326593e-038
0.041465349 0.045325201 0.031698212 5.6235495e-039
0.043579362 0.044816792 0.032949753 1.4475053e-038
0.045789026 0.043800835 0.035093613 1.2631142e-038
0.048008971 0.042784877 0.037239298 1.2171607e-038
0.049951643 0.043291654 0.036709584 1.1341845e-038
0.05198729 0.043290857 0.037071779 1.3371226e-038
0.054123886 0.042782478 0.038327292 1.1988289e-038
0.056369387 0.041766487 0.040477581 1.4661961e-038
0.058518738 0.041258104 0.041735359 1.2079764e-038
0.060673136 0.040749725 0.042994037 4.6119185e-039
0.062832631 0.04024132 0.04425367 8.391219e-039
0.065226123 0.038717769 0.047305599 9.2199063e-039
0.067283973 0.038716983 0.047671758 3.2271904e-039
0.069102123 0.03973138 0.046244562 3.7803641e-039
0.070909426 0.040745813 0.044815384 3.8714808e-039
0.072455846 0.042775441 0.041589096 3.9636764e-039
0.074236289 0.043789864 0.040155195 4.3317387e-039
0.075614914 0.046327114 0.036023699 6.8192046e-039
0.077498876 0.046833966 0.035483569 1.2067118e-038
0.079241745 0.047848452 0.034042962 1.4830816e-038
0.081112176 0.048355322 0.03350044 1.4921923e-038
0.082977206 0.048862204 0.032956965 1.5289628e-038
0.085124008 0.048353896 0.034214333 1.4277994e-038
0.087276027 0.047845595 0.035472631 1.5660563e-038
0.089284338 0.047844898 0.035830021 1.5476892e-038
0.091140985 0.048351813 0.035285063 1.6767985e-038
0.093300715 0.047843534 0.03654477 1.7042057e-038
0.095151916 0.048350465 0.035998859 1.6306652e-038
0.09699782 0.048857413 0.035452016 1.6857664e-038
0.098838374 0.049364369 0.034904227 1.6674349e-038
0.1010032 0.048856124 0.03616485 1.6488527e-038
0.10317332 0.048347887 0.037426412 1.5476899e-038
0.10517865 0.048347268 0.037783317 1.3724865e-038
0.10718398 0.048346661 0.038140222 1.0590585e-038
0.10936476 0.047838457 0.039403714 1.1238124e-038
0.11137284 0.047837872 0.039761126 9.0257956e-039
0.11356166 0.047329657 0.041026115 8.1060015e-039
0.11630591 0.045298651 0.045015946 7.3738399e-039
0.11944346 0.042252373 0.050826576 5.2533418e-039
0.12506536 0.032607071 0.068458959 3.5938205e-039
0.12753594 0.031591304 0.07064943 2.5803888e-039
0.12924156 0.032606002 0.069202371 2.2123266e-039
0.13093665 0.033620749 0.067753397 1.93646e-039
0.13162515 0.037173588 0.061748546 1.93646e-039
0.13409378 0.03615788 0.0639387 1.8453433e-039
0.1369824 0.034126926 0.067954354 1.937539e-039
0.14009959 0.031588364 0.07288605 2.2141258e-039
0.14261404 0.030572668 0.075084433 2.3063229e-039
0.14428926 0.031587515 0.073631987 2.0304563e-039
0.14530879 0.034125239 0.069436803 1.9382578e-039
0.14717326 0.034632478 0.068893455 2.2148461e-039
0.1479305 0.037677865 0.06377627 2.0304563e-039
0.14954866 0.038692798 0.062313702 2.0304563e-039
0.15093087 0.040215343 0.059933864 2.1226505e-039
0.15275438 0.040722698 0.05938321 1.3850854e-039
0.15503514 0.04021477 0.060664751 1.6616723e-039
0.15685415 0.040722162 0.060113326 1.9389795e-039
0.15914106 0.040214274 0.061395992 2.8609358e-039
0.16071668 0.041229334 0.059925925 5.8111945e-039
0.16324893 0.040213864 0.062127631 3.0446068e-039
0.16505927 0.040721346 0.061574709 7.2856058e-039
0.16884102 0.037167776 0.068375632 4.24315e-039
0.17266057 0.033614259 0.07518325 3.7821718e-039
0.17878903 0.025492067 0.090280131 2.2148461e-039
0.18092322 0.025491983 0.090660326 2.0304534e-039
0.18305811 0.025491923 0.091040663 2.2148447e-039
0.18545397 0.024984267 0.092342809 2.123005e-039
0.18732992 0.02549188 0.091801733 2.123005e-039
0.18866992 0.027014796 0.089414537 2.2151992e-039
0.18999475 0.028537709 0.087024696 2.2151992e-039
0.1902204 0.0320912 0.080937721 1.8474929e-039
0.19177783 0.033106539 0.079464659 1.1102824e-039
0.19277273 0.035137188 0.076140732 2.5854125e-039
0.19542119 0.034122095 0.078363299 4.0565825e-039
0.1980812 0.033106998 0.080588005 3.3182986e-039
0.20388049 0.026508065 0.093000434 2.8587596e-039
0.20716721 0.024477791 0.097087443 2.3077508e-039
0.0038359463 0.032863796 0.042255409 2.3988702e-039
0.0056981221 0.035922419 0.037343323 6.9160876e-039
0.0076892599 0.036941547 0.035949811 7.8376781e-039
0.0098412558 0.035921101 0.038080677 2.3063089e-039
0.01141037 0.041529186 0.028746761 3.136787e-039
0.013258621 0.043568071 0.025580004 1.4108068e-038
0.01508525 0.045606934 0.022409447 1.2632217e-038
0.017051131 0.046116188 0.021885343 1.3831116e-038
0.019180156 0.045095734 0.024012111 6.3632711e-039
0.021378458 0.043565422 0.027025059 3.9651057e-039
0.023469225 0.043054845 0.028271101 1.235563e-038
0.025500707 0.043054175 0.028632633 1.4291738e-038
0.027398035 0.044073302 0.02722241 3.0431508e-039
0.029562712 0.04305283 0.029355519 1.9368033e-039
0.03152103 0.043562073 0.028830066 1.336906e-038
0.033773258 0.042031705 0.031852655 1.4383564e-038
0.035886027 0.041521143 0.03310255 5.5327874e-039
0.037763238 0.042540241 0.031688809 4.6104765e-039
0.039795212 0.042539563 0.032050416 1.5673952e-038
0.041826904 0.042538889 0.032411985 1.4106628e-038
0.044034667 0.041518431 0.034552701 3.5034241e-039
0.04579863 0.043047432 0.032244891 1.0142226e-038
0.047920302 0.042536866 0.03349638 9.3128208e-039
0.049854755 0.043046091 0.032966733 3.2286323e-039
0.051981188 0.042535525 0.034219064 2.5843377e-039
0.05421415 0.041515063 0.036364272 2.3985157e-039
0.056977928 0.037945051 0.042973593 3.4130208e-039
0.059458375 0.035904754 0.046910718 3.5052164e-039
0.061850373 0.034374386 0.04995814 3.413018e-039
0.063809887 0.034883611 0.049432959 3.5966932e-039
0.066452041 0.032333408 0.054272775 3.4123005e-039
0.072205909 0.034371056 0.051801097 3.8714822e-039
0.074151106 0.034880299 0.051273379 4.0558734e-039
0.075834878 0.036409397 0.048951272 4.2395444e-039
0.076196507 0.043037593 0.03765472 3.9636764e-039
0.077421837 0.04609647 0.032629251 5.341562e-039
0.079022989 0.047625579 0.030292489 9.9466533e-039
0.080885217 0.048134908 0.02974996 1.0037763e-038
0.082742013 0.048644215 0.029206537 1.1697274e-038
0.084737226 0.048643623 0.029561654 1.4645361e-038
0.086878888 0.048133124 0.030816749 1.3630478e-038
0.0887274 0.048642453 0.030271851 1.3999258e-038
0.090570584 0.049151789 0.029726014 1.547439e-038
0.092871711 0.048131395 0.031883404 1.584317e-038
0.095026277 0.047620893 0.03314086 1.4735026e-038
0.097186126 0.047110423 0.034399211 1.3997827e-038
0.099026367 0.047619794 0.03385286 1.4740437e-038
0.10119146 0.047109339 0.035112165 1.197387e-038
0.10336182 0.046598893 0.036372393 8.6559187e-039
0.10536712 0.046598371 0.036729358 1.022397e-038
0.10754543 0.046087939 0.037991017 9.5786023e-039
0.10955344 0.04608744 0.038348474 5.9844132e-039
0.11173976 0.045576997 0.039611623 6.1695318e-039
0.11375056 0.045576513 0.039969586 6.4475592e-039
0.115945 0.045066118 0.041234136 9.4918185e-039
0.11833103 0.044045813 0.043406717 3.2239562e-039
0.12129451 0.041495722 0.048303854 2.7640584e-039
0.12370994 0.040475406 0.050481733 2.8569743e-039
0.12652455 0.038435247 0.054478478 2.5811091e-039
0.12995103 0.034865327 0.06120586 2.5811091e-039
0.13341482 0.031295385 0.067939952 2.3974381e-039
0.13630942 0.029255284 0.071950912 2.4896337e-039
0.13697268 0.032824393 0.065951683 2.3063229e-039
0.1382214 0.034863751 0.062678397 1.9382578e-039
0.13881885 0.038432904 0.056667477 2.0304563e-039
0.14129424 0.037412707 0.058856044 2.1226505e-039
0.1427035 0.038942192 0.056485258 2.3070417e-039
0.1458416 0.036392208 0.061413579 2.3992374e-039
0.14635803 0.039961435 0.055388264 6.3636509e-039
0.14862455 0.039451227 0.056665782 5.5338888e-039
0.14999267 0.040980775 0.054287717 1.1342212e-038
0.15203135 0.040980525 0.054650787 7.6543869e-039
0.15430167 0.040470336 0.055929065 9.221714e-039
0.15610978 0.040980075 0.055377156 8.2075621e-039
0.15909624 0.038940128 0.059404653 1.0973431e-038
0.16114727 0.038939949 0.059769966 9.4983009e-039
0.16416657 0.036900032 0.06380333 7.3778014e-039
0.16598463 0.037409816 0.063253298 7.1004956e-039
0.16952877 0.034350079 0.069127932 6.8246276e-039
0.1728555 0.031800289 0.074089974 2.1219302e-039
0.17620939 0.029250512 0.079056859 2.1226491e-039
0.17754853 0.030780233 0.076673806 2.123005e-039
0.17938818 0.031290114 0.076127678 2.3988716e-039
0.18200488 0.030270223 0.078341603 1.7531449e-039
0.18489625 0.028740395 0.081478409 1.8460622e-039
0.18674064 0.029250367 0.080933109 3.6903293e-039
0.18911768 0.028740441 0.082230568 3.506294e-039
0.19014463 0.030780256 0.078918055 8.6699681e-039
0.19306836 0.029250542 0.08206062 1.0421685e-038
0.19545583 0.028740685 0.083359979 1.336906e-038
0.19952498 0.025171272 0.090202183 1.2078323e-038
0.20363238 0.021601856 0.097051263 4.4268069e-039
0.20493235 0.023131855 0.094661333 3.0427991e-039
0.2073662 0.022622129 0.095968962 2.5825398e-039
0.0041727275 0.028997408 0.044675052 1.1077797e-039
0.005930379 0.033606671 0.037135631 3.7821578e-039
0.0077208802 0.037191562 0.031346984 7.0082832e-039
0.0098195225 0.036678802 0.032593071 5.1650909e-039
0.011464313 0.041288089 0.025033556 2.8612791e-039
0.013255022 0.04384857 0.020989925 9.1302274e-039
0.015121207 0.045384664 0.018704668 5.3494835e-039
0.017186567 0.044871934 0.019944772 9.3138956e-039
0.019313447 0.043846972 0.022068359 1.4844912e-038
0.021628186 0.041285407 0.026842773 1.0511719e-038
0.023659989 0.041284863 0.027204439 2.7669297e-039
0.02556245 0.042308751 0.02579809 7.8376921e-039
0.027588278 0.042308211 0.026158698 1.2355275e-038
0.029893085 0.040258825 0.030058876 3.7814375e-039
0.031928919 0.040258277 0.030421257 3.7807173e-039
0.034039587 0.039745528 0.031669423 8.1139105e-039
0.036388636 0.037696131 0.035577476 6.1778036e-039
0.038356401 0.038207784 0.035055272 3.0431508e-039
0.040318549 0.038719438 0.03453207 3.1360681e-039
0.042618155 0.037182264 0.037558801 2.7669297e-039
0.044668131 0.037181713 0.037923694 3.4122977e-039
0.046626739 0.03769337 0.037399866 3.6888846e-039
0.048579782 0.038205028 0.036875039 3.9654729e-039
0.05120191 0.03513119 0.042576641 4.3335351e-039
0.053756595 0.032569561 0.047393762 4.7945119e-039
0.056134187 0.031032342 0.050434429 4.3342554e-039
0.058318734 0.030519575 0.051695749 4.2424157e-039
0.059973367 0.032567903 0.048500367 4.4268083e-039
0.061606523 0.034616232 0.045301154 4.4257307e-039
0.063667454 0.034615692 0.045668013 4.7945119e-039
0.065958023 0.033590689 0.047820725 4.056951e-039
0.068376645 0.032053478 0.050868712 3.5044989e-039
0.069969133 0.034101829 0.047662266 3.3197489e-039
0.071417317 0.036662411 0.043557674 3.6878098e-039
0.073215485 0.037686352 0.04213278 3.5956156e-039
0.075900294 0.035124708 0.046973087 3.5956156e-039
0.076648563 0.040246431 0.038381524 3.2275519e-039
0.077744216 0.04383149 0.032469258 3.9629561e-039
0.079347253 0.04536768 0.030137174 7.1880011e-039
0.080934219 0.046903878 0.027802221 8.5684104e-039
0.082788117 0.04741561 0.027259782 8.1063603e-039
0.084780663 0.04741513 0.027614489 8.1045596e-039
0.086919919 0.046902429 0.028867789 1.0596723e-038
0.089064322 0.046389736 0.030121997 1.280906e-038
0.09106192 0.046389267 0.030477621 9.950633e-039
0.093523525 0.044852104 0.03353329 8.3811451e-039
0.095528923 0.044851646 0.033890307 1.0133584e-038
0.097694285 0.044338968 0.035148263 6.9081786e-039
0.099539585 0.044850752 0.034604318 5.5252442e-039
0.1017102 0.044338088 0.035863236 7.2773241e-039
0.1037181 0.044337656 0.036220707 7.2769611e-039
0.10572603 0.044337232 0.036578193 6.2624463e-039
0.10808048 0.04331233 0.038742341 7.2773185e-039
0.11026969 0.042799693 0.040004589 6.4475592e-039
0.11264275 0.041774832 0.042172022 6.9088975e-039
0.1146641 0.041774437 0.042531908 7.0010931e-039
0.11650166 0.042286281 0.041986629 6.357167e-039
0.11870701 0.041773673 0.04325176 7.5564319e-039
0.12110691 0.040748812 0.045424037 6.1742163e-039
0.12332575 0.040236223 0.046691582 5.1607861e-039
0.12554999 0.039723642 0.047960088 5.8065156e-039
0.12817393 0.038186572 0.051044744 3.778932e-039
0.13141315 0.035112809 0.056856327 2.7655004e-039
0.13549396 0.029990092 0.066307664 2.4896337e-039
0.13634726 0.033063207 0.061224829 2.3974381e-039
0.13675357 0.03716084 0.054317448 3.5048661e-039
0.13774876 0.039721753 0.050132349 5.164386e-039
0.13999571 0.039209243 0.051404949 9.4975806e-039
0.14224827 0.038696714 0.052678611 2.2148461e-039
0.1455979 0.035623014 0.058509909 4.980715e-039
0.14677013 0.037671745 0.055228818 3.6899762e-039
0.1490396 0.037159279 0.05650546 1.0604646e-038
0.15040959 0.038695775 0.054132119 1.0512451e-038
0.15245084 0.038695574 0.054495677 8.115365e-039
0.15472409 0.038183145 0.05577302 1.0051475e-038
0.15676887 0.03818297 0.056137223 7.3781657e-039
0.15976158 0.036133826 0.060160112 8.4848678e-039
0.16205741 0.035621438 0.061441496 3.7825263e-039
0.16532786 0.033060085 0.06638632 3.4130208e-039
0.16838059 0.031010985 0.07041993 3.1364339e-039
0.17096002 0.029986404 0.072624303 2.5839818e-039
0.17280023 0.030498553 0.072079688 2.399222e-039
0.17463562 0.031010713 0.071534209 8.4841335e-039
0.1769774 0.030498419 0.072823837 9.8684973e-039
0.17932509 0.029986139 0.074114531 6.4558311e-039
0.18167882 0.029473849 0.075406365 1.226379e-038
0.18430206 0.028449364 0.077618599 1.1528728e-038
0.18640438 0.028449375 0.077993177 3.0460221e-039
0.18823862 0.028961642 0.077447563 1.0052184e-038
0.19006833 0.029473927 0.07690116 2.9538405e-039
0.19216773 0.02947399 0.077275239 8.3191026e-040
0.1945447 0.028961837 0.07857123 5.8133413e-039
0.19776642 0.026912956 0.08263509 1.0791164e-038
0.20242119 0.022302875 0.091316499 1.0698957e-038
0.20541596 0.020766307 0.094467461 2.767287e-039
0.20842776 0.019229727 0.097621523 2.7680059e-039
0.0061248615 0.031800777 0.036047295 1.1081286e-039
0.007791169 0.036945555 0.027633637 5.4416791e-039
0.0096646994 0.039003231 0.024483062 7.010067e-039
0.01156272 0.040546395 0.022207864 2.0315198e-039
0.013493247 0.041575015 0.020809539 2.5832587e-039
0.015515707 0.041574609 0.021169625 1.3370147e-038
0.017483719 0.042088713 0.020648986 1.1341842e-038
0.019616403 0.041059271 0.022770748 8.5752572e-039
0.021699972 0.040544342 0.02401273 4.7030407e-039
0.023974806 0.038485829 0.027901903 3.3201063e-039
0.026011579 0.038485412 0.02826453 3.4119446e-039
0.028115451 0.03797048 0.029510126 3.3197489e-039
0.030574664 0.034882884 0.035174206 3.3197489e-039
0.033065476 0.031795315 0.040843867 4.4264524e-039
0.035210922 0.031280369 0.042096868 5.4398827e-039
0.037361361 0.030765422 0.043350756 5.8090197e-039
0.039678223 0.029221399 0.04637637 5.6253501e-039
0.04574728 0.030249152 0.045714855 5.3491276e-039
0.047184266 0.033850443 0.039873429 4.9796248e-039
0.048959702 0.035393618 0.037576407 5.7171884e-039
0.051202089 0.034364119 0.039717741 5.4398827e-039
0.053851977 0.031276517 0.045415722 5.8086638e-039
0.056023791 0.030761573 0.046673417 6.7316963e-039
0.058095992 0.030761149 0.047042355 4.5190026e-039
0.059310034 0.034876965 0.040290266 5.3487632e-039
0.061140742 0.035905629 0.038874112 4.1502201e-039
0.062960654 0.036934271 0.037456088 4.1498669e-039
0.064769715 0.037962947 0.036036074 4.1498669e-039
0.067157194 0.036418926 0.039074279 3.5966932e-039
0.069198884 0.03641852 0.039437793 3.2275519e-039
0.071732983 0.034359965 0.043373123 3.5963358e-039
0.073910721 0.033845033 0.044631884 3.5041416e-039
0.075965099 0.033844631 0.044997655 3.5041444e-039
0.077363759 0.036416918 0.040891521 3.1353605e-039
0.077799425 0.042590991 0.030516654 3.2257568e-039
0.079126224 0.0451633 0.026397735 3.0406453e-039
0.080843545 0.046191983 0.024961457 3.6842098e-039
0.082833588 0.04619161 0.025315784 8.4769421e-039
0.085112214 0.045162179 0.027463555 7.27768e-039
0.087254301 0.04464728 0.028715976 5.6174384e-039
0.089401625 0.044132352 0.029969394 6.3550048e-039
0.091554128 0.043617457 0.031223685 7.9226879e-039
0.093711898 0.043102566 0.032478914 6.5393961e-039
0.095874861 0.042587683 0.033735067 6.1698947e-039
0.098043114 0.042072769 0.034992225 7.7379379e-039
0.10005368 0.042072427 0.035350241 6.8159816e-039
0.1022298 0.041557554 0.036608748 6.1713324e-039
0.1044112 0.041042686 0.037868202 7.1854844e-039
0.10659792 0.040527821 0.039128602 5.8025499e-039
0.10878997 0.040012959 0.04038997 6.3557237e-039
0.11116348 0.038983539 0.042554706 6.7245062e-039
0.11336881 0.038468689 0.043818437 7.7383008e-039
0.11521667 0.038982924 0.043276466 6.2638924e-039
0.11705925 0.039497167 0.04273358 5.618523e-039
0.1188966 0.040011447 0.042189702 5.8961889e-039
0.1209182 0.040011168 0.042549714 5.0671485e-039
0.12313196 0.039496321 0.043815017 4.514695e-039
0.12554587 0.038466968 0.045986943 6.4504459e-039
0.12777318 0.03795217 0.047254607 6.8206675e-039
0.13080594 0.035379171 0.052149851 7.5582326e-039
0.13406803 0.03229161 0.057956997 2.9491713e-039
0.13695158 0.030233167 0.061954658 2.2130454e-039
0.13736117 0.034349337 0.055059392 7.3770811e-039
0.13836041 0.036921863 0.050882235 5.8104743e-039
0.14061287 0.036407109 0.052154422 6.9168232e-039
0.14308688 0.035377815 0.054337081 5.0721904e-039
0.1462274 0.032804869 0.059251551 5.4416946e-039
0.14740393 0.034862861 0.055977058 6.3636495e-039
0.14990275 0.033833593 0.058164157 4.7044812e-039
0.151733 0.03434797 0.057619147 2.2152006e-039
0.15447503 0.03280418 0.060720589 1.5694767e-039
0.15676972 0.032289457 0.062000394 1.4765608e-039
0.15930463 0.03126023 0.064193942 1.1999739e-039
0.16232491 0.029201891 0.068216026 1.1084986e-039
0.16440779 0.029201776 0.068587057 9.1302246e-039
0.16746092 0.02714346 0.072615005 1.1804254e-038
0.17029077 0.025599726 0.075732134 1.235635e-038
0.17189823 0.026628738 0.074276485 5.0746903e-039
0.17274442 0.029201429 0.070072167 3.5977651e-039
0.17457692 0.029715918 0.069527626 1.1526588e-038
0.17768347 0.02765766 0.073565133 1.0883002e-038
0.17951994 0.028172204 0.073021263 1.1999599e-039
0.18161277 0.028172186 0.073394127 9.5886888e-039
0.18423383 0.027143057 0.075603157 1.0791153e-038
0.18686628 0.026113972 0.077814177 1.4772643e-039
0.18924105 0.025599446 0.079108305 5.6246411e-039
0.19270891 0.02302669 0.084081277 3.3211923e-039
0.19346024 0.025599532 0.079860084 2.0311751e-039
0.19529401 0.026114142 0.079315841 2.4010282e-039
0.1974031 0.02611422 0.079691663 1.1158883e-038
0.20205472 0.021483339 0.088359579 1.1251419e-038
0.20561507 0.018910689 0.09334904 2.1211945e-039
0.20920312 0.01633806 0.098343432 5.072175e-039
0.0081061572 0.033612456 0.029189982 1.4779901e-039
0.0096806288 0.039297376 0.019904882 5.9037349e-039
0.011613652 0.040330756 0.018509954 7.5632562e-039
0.013633773 0.040330473 0.018869698 2.3992234e-039
0.015912056 0.037745997 0.023623377 2.9520398e-039
0.018053539 0.036712047 0.025743902 3.0442396e-039
0.020262346 0.035161234 0.028746039 3.044241e-039
0.022307739 0.035160944 0.029110283 3.1353605e-039
0.023916408 0.038778547 0.023309588 3.1353605e-039
0.026332542 0.035677224 0.028957389 3.1353605e-039
0.028644934 0.033609562 0.032847546 3.2275547e-039
0.030978315 0.031541899 0.03674145 3.3197489e-039
0.033332616 0.029474232 0.040639073 3.4115816e-039
0.035480954 0.028957102 0.041891232 3.5037787e-039
0.037399434 0.029990472 0.040493712 3.6881657e-039
0.039226018 0.031540714 0.038210198 3.6881657e-039
0.041203558 0.032057256 0.03769277 3.5044989e-039
0.043606833 0.029989578 0.041599117 3.2286323e-039
0.045319714 0.032056659 0.038425773 3.3208265e-039
0.04710263 0.033606909 0.036134474 3.4130208e-039
0.049340464 0.03257291 0.038272209 3.5966932e-039
0.051879287 0.029988389 0.043072268 3.6888846e-039
0.054245315 0.028437549 0.046102412 3.4122977e-039
0.056116082 0.029470962 0.044696338 3.3201035e-039
0.057766274 0.031538054 0.041511834 3.6888846e-039
0.059395008 0.033605155 0.038323507 3.4123005e-039
0.061002262 0.035672259 0.035131358 3.1364339e-039
0.063264906 0.03463826 0.037273504 3.4119446e-039
0.065422431 0.034121133 0.038527295 3.4119474e-039
0.067821309 0.032570291 0.041563287 2.6743823e-039
0.069752812 0.033086851 0.041037671 2.3063215e-039
0.072172448 0.031536039 0.044077307 1.9375376e-039
0.074103609 0.032052603 0.043551631 1.9375376e-039
0.075771824 0.033602882 0.041239925 1.7531477e-039
0.077949427 0.033085734 0.042497359 1.7531477e-039
0.078658067 0.038253985 0.033927597 2.029736e-039
0.079586908 0.042388503 0.027136318 2.5811091e-039
0.081448309 0.042905115 0.026598178 3.5938191e-039
0.083304316 0.043421697 0.026059128 5.9905453e-039
0.085588694 0.04238772 0.028205164 7.7390211e-039
0.087736338 0.04187062 0.029457211 7.553911e-039
0.090039089 0.040836673 0.031606473 5.9865839e-039
0.092199795 0.040319547 0.032860897 6.3557237e-039
0.094365716 0.039802454 0.034116216 6.3557237e-039
0.09653686 0.039285362 0.035372466 6.1709765e-039
0.098552801 0.03928512 0.035731487 6.8163445e-039
0.10056865 0.039284881 0.036090493 8.0148877e-039
0.10275033 0.0387678 0.037348621 5.2493762e-039
0.10476878 0.038767569 0.037708104 6.1713324e-039
0.1069584 0.038250491 0.038967654 6.7245062e-039
0.10915329 0.037733391 0.040228195 6.1716968e-039
0.11152995 0.03669947 0.042390637 4.4199784e-039
0.11355911 0.036699254 0.042752035 6.4482865e-039
0.11577007 0.036182199 0.044015393 6.5404807e-039
0.11743336 0.037215687 0.042572476 5.8951113e-039
0.11946015 0.037215486 0.042933464 7.0007372e-039
0.121487 0.037215289 0.043294452 6.6326749e-039
0.12370626 0.036698245 0.044559307 5.0664282e-039
0.12593104 0.036181211 0.045825139 6.3578873e-039
0.12796363 0.036181029 0.04618717 4.1459125e-039
0.13039689 0.035147119 0.048359774 4.7920021e-039
0.13324672 0.033079512 0.052345727 4.8845579e-039
0.13591243 0.03152879 0.055429257 2.4896253e-039
0.13776147 0.03204548 0.054889031 3.9654729e-039
0.13981633 0.032045323 0.055255048 2.7676513e-039
0.14251198 0.030494586 0.05834398 1.8456936e-039
0.14479147 0.02997759 0.059619583 1.4769139e-039
0.14707662 0.029460602 0.060896207 5.5335188e-039
0.14892446 0.029977325 0.060355783 8.853995e-039
0.1514397 0.028943498 0.062542975 1.0236928e-038
0.15373912 0.028426494 0.063822202 1.2725131e-038
0.15696196 0.025842087 0.068744205 1.1528362e-038
0.15951551 0.024808278 0.07093823 3.691023e-039
0.16161066 0.024808181 0.071311459 2.0297206e-039
0.16346893 0.025324946 0.070772931 1.2080458e-038
0.16460222 0.027392311 0.067496493 2.1237141e-039
0.16668555 0.027392238 0.067867629 1.3847197e-039
0.16950545 0.025841581 0.070978746 1.2171959e-038
0.17159784 0.025841525 0.071351506 9.6855354e-039
0.17318946 0.026875215 0.069895878 2.0307842e-039
0.17527765 0.026875174 0.070267908 1.1618775e-038
0.17813453 0.025324553 0.073385626 1.0329466e-038
0.1804907 0.024807675 0.074674979 1.0159288e-039
0.18233022 0.025324518 0.07413315 1.041879e-038
0.18495709 0.024290804 0.076340295 1.1527639e-038
0.18812865 0.022223363 0.080383673 4.9806898e-039
0.19051434 0.021706523 0.081678301 2.8580505e-039
0.19338161 0.024290882 0.077841327 2.3070417e-039
0.19576707 0.023774073 0.079135932 3.2282638e-039
0.1975988 0.024290983 0.078592762 1.2265926e-038
0.20225263 0.0196393 0.087248132 1.0146135e-038
0.20581423 0.017055077 0.092230618 2.3066606e-039
0.2099795 0.01343713 0.099059835 6.7324152e-039
0.0071316659 0.019882478 0.047871001 4.7041281e-039
0.0086290389 0.027669635 0.035115495 3.7821704e-039
0.010046199 0.035456799 0.022345699 1.9389683e-039
0.0118028 0.038571566 0.017449714 5.2583655e-039
0.013822906 0.038571406 0.017809533 7.1933961e-039
0.016258299 0.03441802 0.025188476 2.8598456e-039
0.018572092 0.031822082 0.02994135 3.0435194e-039
0.02051124 0.032860216 0.028550476 3.043162e-039
0.022319533 0.034936681 0.025399968 3.0431648e-039
0.024106242 0.037013154 0.022245608 3.1350031e-039
0.0260671 0.03753214 0.021726735 3.0431648e-039
0.028090231 0.037531979 0.02208709 3.0431648e-039
0.030536473 0.03441688 0.027731687 3.1353605e-039
0.033087499 0.030782595 0.034263141 3.1353577e-039
0.035371922 0.029224973 0.03727445 3.2275519e-039
0.037122175 0.031301416 0.034113653 3.3197489e-039
0.039013252 0.032339584 0.032714158 3.3197489e-039
0.040977277 0.032858569 0.032195851 3.3197489e-039
0.043195195 0.0318201 0.034327179 3.1353577e-039
0.04497765 0.033377394 0.032040253 3.044241e-039
0.046468422 0.036492202 0.02709686 2.952044e-039
0.048210487 0.0380495 0.024802737 2.952044e-039
0.050324865 0.037530184 0.026047491 2.8587708e-039
0.05254408 0.036491711 0.028179049 2.950965e-039
0.054466337 0.037010703 0.027653299 2.214479e-039
0.05659321 0.03649139 0.028900273 2.1222847e-039
0.058725156 0.035972044 0.030148208 1.8456993e-039
0.060972564 0.034933574 0.032284781 1.9378935e-039
0.063230388 0.033895105 0.034423225 1.7531449e-039
0.065035746 0.034933254 0.033008523 1.8453419e-039
0.06671197 0.036490589 0.030702621 2.1219302e-039
0.068130031 0.039086238 0.026614465 2.3063229e-039
0.070016019 0.039605238 0.026082262 1.8453433e-039
0.07227546 0.038566742 0.028221041 2.029736e-039
0.074674234 0.03700912 0.031252727 1.8453433e-039
0.077483632 0.033894006 0.036962017 4.7956021e-039
0.079519063 0.03389385 0.03732457 2.4907113e-039
0.080185309 0.039085321 0.028761774 2.4896337e-039
0.08191485 0.040123485 0.027333558 3.0413656e-039
0.083775915 0.040642496 0.026796922 4.2391899e-039
0.086210921 0.039084882 0.029835068 5.4373716e-039
0.088366762 0.03856555 0.031087264 5.8032702e-039
0.090677917 0.037527092 0.033235207 5.9869398e-039
0.092693999 0.03752695 0.033594333 5.7103543e-039
0.094710015 0.037526809 0.033953428 7.1854844e-039
0.096725941 0.037526671 0.034312516 6.6319547e-039
0.098741867 0.037526537 0.034671605 5.9865839e-039
0.10092112 0.037007246 0.035927922 6.7241503e-039
0.10310563 0.036487952 0.037185192 6.4479207e-039
0.10529549 0.035968635 0.038443454 5.8947456e-039
0.10731927 0.035968509 0.038803943 6.3557237e-039
0.10951701 0.035449222 0.04006356 9.4903751e-039
0.11172017 0.034929939 0.041324154 7.1858487e-039
0.11392864 0.034410663 0.042585678 7.0014575e-039
0.11614247 0.033891384 0.043848179 5.9873055e-039
0.11799247 0.034410428 0.043309584 6.1716968e-039
0.12002455 0.034410313 0.043671563 6.9085416e-039
0.1218668 0.034929357 0.043131605 5.9869398e-039
0.12428151 0.033890933 0.045298025 5.4341331e-039
0.12631656 0.033890828 0.04566054 5.8039919e-039
0.12854967 0.033371534 0.046926521 5.0671457e-039
0.13058771 0.033371437 0.04728958 5.067866e-039
0.13323538 0.031813856 0.050365623 5.8068687e-039
0.136105 0.029737089 0.054349408 8.851121e-039
0.13899599 0.027660327 0.058336999 1.0511717e-038
0.14169736 0.026102725 0.06142268 1.2725131e-038
0.14441493 0.024545159 0.064511195 1.1158886e-038
0.14628312 0.025064237 0.063975871 2.491419e-039
0.14748916 0.027140839 0.060718141 1.2171959e-038
0.14911768 0.028179083 0.059271988 2.3055872e-039
0.15118465 0.028179014 0.059640214 9.2374015e-040
0.15370607 0.027140629 0.061825667 1.023513e-038
0.15623847 0.026102211 0.064013124 1.1067381e-038
0.15901418 0.024544669 0.067112021 1.0419485e-038
0.16110137 0.024544615 0.067483857 7.0086251e-039
0.16390194 0.022987051 0.070587233 1.1803506e-038
0.16527715 0.02454452 0.068227798 2.2137587e-039
0.16736576 0.024544479 0.068599895 1.4765594e-039
0.16945495 0.024544444 0.068972096 1.1987922e-038
0.17204116 0.023506057 0.07116916 1.070004e-038
0.17388593 0.024025191 0.070629701 2.2151726e-039
0.17597941 0.024025168 0.071002677 1.2447811e-038
0.17884234 0.022467665 0.074117132 1.0697525e-038
0.18042733 0.023505978 0.072663262 1.1065233e-038
0.18226396 0.024025131 0.072122365 1.2447447e-038
0.18488865 0.022986805 0.074326247 1.1159209e-038
0.18965989 0.017795127 0.083857715 3.8736318e-039
0.19412714 0.021429334 0.078576721 2.3070417e-039
0.1962406 0.021429358 0.078953288 3.874352e-039
0.19863525 0.020910226 0.080248088 1.2081892e-038
0.2027335 0.017276101 0.087055229 8.7628434e-039
0.20629898 0.014680274 0.092031255 3.4130067e-039
0.010590456 0.029511776 0.028273657 2.0308094e-039
0.012226209 0.034205001 0.020764731 2.9527643e-039
0.013863288 0.038376763 0.014122725 4.4271727e-039
0.015875056 0.03837673 0.014481142 7.1008445e-039
0.017886519 0.038376693 0.0148395 3.0435194e-039
0.020127721 0.036290757 0.018705606 3.1353577e-039
0.022269502 0.035247788 0.020820566 3.043162e-039
0.024044551 0.037333652 0.017669991 3.0431648e-039
0.026060015 0.037333619 0.018029064 3.2271974e-039
0.028007008 0.037855048 0.017509229 3.0438851e-039
0.030585736 0.033683214 0.024902314 3.2275547e-039
0.033059709 0.030554343 0.030543283 3.2275547e-039
0.035565265 0.027425472 0.036189891 3.1353605e-039
0.037235729 0.030032802 0.032153964 3.043162e-039
0.039042205 0.031597171 0.029875726 2.9509678e-039
0.040664218 0.034204498 0.025831178 2.2141244e-039
0.043040201 0.032118596 0.02972126 2.1219288e-039
0.044900708 0.033161491 0.028319329 1.8453419e-039
0.046566151 0.035247356 0.025149204 1.7531449e-039
0.048304789 0.036811724 0.02285888 1.9375376e-039
0.050319374 0.036811691 0.02321779 2.0297346e-039
0.052333698 0.036811654 0.023576654 2.0297346e-039
0.054245092 0.037333116 0.023050435 2.1219288e-039
0.056361586 0.036811583 0.024294257 2.0304534e-039
0.058483168 0.036290079 0.025538921 2.2148461e-039
0.060720429 0.035247106 0.027670898 3.136801e-039
0.062628239 0.035768542 0.027144097 3.5055849e-039
0.064530477 0.036289975 0.02661629 3.7821718e-039
0.066545822 0.036289938 0.026975349 4.888518e-039
0.068439677 0.036811374 0.026446059 7.6543869e-039
0.07045199 0.036811341 0.026804566 6.6402363e-039
0.072590634 0.036289837 0.028052278 8.3919533e-039
0.075121991 0.034203898 0.031970091 6.2710979e-039
0.077806294 0.031596493 0.036781847 8.6685388e-039
0.080785915 0.027946148 0.043379605 3.9665631e-039
0.081745163 0.032117926 0.036616839 2.5818294e-039
0.082801692 0.0357682 0.03073816 2.4896337e-039
0.084533259 0.036811106 0.029313259 3.4094278e-039
0.08668942 0.036289606 0.030564092 4.6998079e-039
0.088850781 0.035768103 0.031815857 5.1586197e-039
0.091167711 0.034725133 0.033962026 5.9876601e-039
0.093036048 0.035246573 0.033428192 6.5401136e-039
0.095054694 0.03524654 0.033787832 6.5404695e-039
0.09707325 0.03524651 0.034147456 6.723786e-039
0.099091791 0.03524648 0.034507073 6.6308743e-039
0.10127392 0.034724984 0.035762548 6.6301512e-039
0.10346134 0.034203455 0.037018992 7.9212417e-039
0.10565408 0.033681955 0.038276352 7.0003616e-039
0.10768049 0.033681929 0.03863737 6.1706038e-039
0.10988113 0.033160429 0.039896138 7.369161e-039
0.11191028 0.033160403 0.040257648 6.7241503e-039
0.11411899 0.032638911 0.041517846 7.6464625e-039
0.11651522 0.031595916 0.043678202 8.7524542e-039
0.1185525 0.031595889 0.044041164 5.3412173e-039
0.12058983 0.031595867 0.044404134 7.3695211e-039
0.12243707 0.032117341 0.0438665 5.8947456e-039
0.12466481 0.031595819 0.045130149 5.1568232e-039
0.12670256 0.031595793 0.045493193 5.8018325e-039
0.1289385 0.0310743 0.046758242 4.7902057e-039
0.13097923 0.031074278 0.047121815 3.4086992e-039
0.13383368 0.02898835 0.051097203 1.1523708e-038
0.13650349 0.02742392 0.054172944 5.9019356e-039
0.13835466 0.027945369 0.053636055 1.0152127e-039
0.14083484 0.026902381 0.055811372 8.114279e-039
0.14332591 0.025859423 0.057988577 1.0607126e-038
0.14647779 0.023252027 0.062883645 9.5911901e-039
0.14834069 0.02377348 0.062348846 7.2848687e-039
0.15130842 0.021687556 0.06634441 1.9378907e-039
0.15182704 0.02533789 0.060369857 2.0311737e-039
0.15389968 0.025337875 0.06073913 2.8638e-039
0.15574285 0.025859328 0.060200825 1.0792239e-038
0.15897648 0.023251938 0.06511046 7.6543462e-039
0.16129622 0.022730459 0.066390455 1.0603533e-038
0.16457324 0.020123066 0.071307823 1.1803859e-038
0.16619362 0.021165997 0.069863126 1.9371718e-039
0.16780382 0.022208925 0.068416625 1.8446217e-039
0.16989566 0.022208918 0.068789318 1.2080119e-038
0.17223652 0.021687442 0.070073076 1.0239062e-038
0.17433211 0.021687437 0.070446447 2.0325792e-039
0.17642833 0.021687431 0.070819914 1.2172303e-038
0.17878163 0.021165958 0.072105892 9.8688406e-039
0.18036348 0.022208894 0.07065434 1.6620072e-039
0.18219717 0.022730393 0.0701143 1.1894273e-038
0.18481967 0.021687422 0.072314985 1.0974822e-038
0.18905647 0.017515603 0.080003493 3.5963246e-039
0.19171777 0.016472667 0.08221104 2.7655004e-039
0.19302815 0.018037111 0.079844385 2.5832615e-039
0.19404823 0.020123022 0.076559305 2.2148447e-039
0.19643688 0.019601528 0.077851638 1.023585e-038
0.19995368 0.016994156 0.082811743 1.1897144e-038
0.20349805 0.014386784 0.08777675 2.4924798e-039
0.20707013 0.011779416 0.092746705 3.1371415e-039
0.0082712695 0.006244394 0.062221903 4.7041281e-039
0.0096026957 0.016720308 0.045153923 4.797044e-039
0.011049636 0.02457726 0.032432832 5.1651063e-039
0.012510613 0.031386644 0.021444753 1.9382564e-039
0.014200777 0.035053257 0.01568912 2.030808e-039
0.015800901 0.039243679 0.0090521425 4.4271755e-039
0.017854139 0.038719986 0.010283262 5.9944998e-039
0.019970149 0.037672509 0.012390837 2.8598498e-039
0.022277765 0.035053615 0.017128408 2.7676556e-039
0.024296209 0.035053704 0.017488085 2.675104e-039
0.026380084 0.03453001 0.01872468 2.5829098e-039
0.028674141 0.032434937 0.022594526 2.029736e-039
0.031131305 0.029292298 0.028223947 2.029736e-039
0.033177711 0.02929239 0.028588608 1.7531449e-039
0.035452962 0.027721101 0.031589858 1.6609507e-039
0.037190579 0.029816359 0.028438434 2.0297346e-039
0.039233387 0.029816452 0.028802454 1.9375376e-039
0.040938504 0.031911705 0.025645249 2.2141244e-039
0.043144129 0.030864231 0.027768776 2.1219288e-039
0.044732459 0.033483267 0.023725502 2.3985157e-039
0.046478584 0.035054706 0.021440908 2.2141244e-039
0.048208527 0.036626175 0.019153371 3.3211923e-039
0.050215125 0.036626268 0.019510947 2.3070403e-039
0.052221447 0.036626358 0.019868463 3.0438865e-039
0.054227553 0.036626447 0.020225942 4.7963237e-039
0.056444556 0.035578974 0.022351511 7.6543869e-039
0.058455519 0.035579063 0.022709854 3.7821718e-039
0.060577065 0.035055339 0.023953207 7.0090175e-039
0.062476624 0.035579238 0.023426406 2.8609358e-039
0.064370655 0.036103111 0.022898659 6.3636509e-039
0.066615731 0.035055604 0.025029272 6.3643711e-039
0.068628199 0.035055693 0.025387891 5.9955858e-039
0.070764586 0.034531999 0.026633829 5.3502178e-039
0.072779372 0.034532085 0.026992857 4.0587573e-039
0.075311713 0.032437015 0.030905172 3.9665631e-039
0.077865124 0.030341979 0.034821182 5.0721904e-039
0.081382819 0.024580384 0.044965938 1.7531477e-039
0.083172448 0.025628062 0.043554284 2.2141258e-039
0.083970979 0.030342236 0.035909213 2.5821881e-039
0.08557789 0.031913657 0.033599794 3.1339171e-039
0.08745946 0.032437522 0.033069827 4.3317401e-039
0.089483649 0.0324376 0.033430532 4.5139719e-039
0.091507733 0.032437682 0.033791207 4.9735095e-039
0.093378447 0.032961573 0.03325925 6.8166991e-039
0.095399708 0.032961648 0.033619426 7.4609895e-039
0.097420901 0.032961726 0.033979587 8.012364e-039
0.099442117 0.032961804 0.034339748 9.7644271e-039
0.10179103 0.03191429 0.036488853 9.8562528e-039
0.10381744 0.031914365 0.036849946 1.1516492e-038
0.10601301 0.031390656 0.038106441 1.2254057e-038
0.10804207 0.031390727 0.038467996 1.0317599e-038
0.11024563 0.030867022 0.039725892 1.0501646e-038
0.1122774 0.030867092 0.040087938 7.4599147e-039
0.11466879 0.02981957 0.042244613 6.8159844e-039
0.11688842 0.029295858 0.043505386 7.6457451e-039
0.11911336 0.028772146 0.044767089 5.802194e-039
0.12115598 0.028772209 0.045131065 6.5397576e-039
0.12319873 0.02877227 0.045495056 7.1851284e-039
0.12524155 0.028772332 0.045859061 4.9724333e-039
0.12728459 0.028772391 0.046223104 6.0787795e-039
0.12932773 0.028772449 0.046587162 7.0003785e-039
0.1317731 0.027724918 0.048753448 4.8849054e-039
0.13463646 0.025629856 0.052724671 1.2446368e-038
0.1385527 0.020915845 0.061209865 9.9585167e-039
0.13917387 0.024582373 0.05526372 2.3988674e-039
0.1412393 0.024582423 0.055631746 5.5335076e-039
0.143305 0.02458247 0.055999819 1.0791519e-038
0.14732306 0.019868452 0.064503148 1.0420951e-038
0.14985232 0.018820938 0.066684335 2.39815e-039
0.1528369 0.01672584 0.070677191 2.674025e-039
0.15202059 0.023535084 0.059283283 2.0311737e-039
0.15454827 0.022487534 0.06146422 2.8612791e-039
0.15593618 0.024058931 0.059115704 1.0791178e-038
0.15917102 0.021440044 0.064018413 8.2082417e-039
0.16125555 0.021440076 0.064389825 1.1341817e-038
0.16500741 0.017773598 0.071115211 1.1342882e-038
0.16662994 0.01882121 0.069673739 1.6613066e-039
0.16824231 0.019868789 0.06823051 2.1204883e-039
0.17033674 0.01986881 0.068603687 1.1528384e-038
0.17268056 0.019345049 0.06988655 1.1159947e-038
0.17452741 0.019868843 0.069350347 1.7549175e-039
0.17662361 0.019868854 0.069723837 1.2171593e-038
0.18000413 0.017249946 0.074652486 9.7752269e-039
0.18055852 0.020392649 0.069559664 1.6609366e-039
0.18239196 0.020916462 0.069021024 1.2539654e-038
0.18475024 0.020392653 0.070306502 1.1431513e-038
0.18871897 0.016726181 0.07707046 2.3055858e-039
0.19029519 0.017773731 0.07562077 9.7766716e-039
0.19186157 0.018821308 0.074169278 3.1364311e-039
0.1945197 0.017773712 0.076373436 3.136787e-039
0.19746734 0.016202366 0.079494387 1.1343259e-038
0.20127413 0.013059622 0.08536426 4.4278803e-039
0.2042636 0.011488269 0.088492654 1.6616583e-039
0.0086312965 0.0022528833 0.064567879 4.9799933e-039
0.0099263489 0.013301393 0.046658516 4.7963237e-039
0.011377506 0.021193247 0.033959888 5.9948669e-039
0.012653708 0.030137327 0.019502401 4.4275412e-039
0.014489576 0.032241981 0.016374335 3.3211923e-039
0.016040333 0.036977172 0.0088763461 2.2152006e-039
0.018207192 0.03539905 0.01185403 5.5342419e-039
0.020215616 0.035399262 0.012212008 1.2932443e-039
0.022527121 0.032768939 0.016943082 1.6620269e-039
0.024421521 0.033821389 0.015553072 1.937539e-039
0.026700936 0.031717174 0.019414619 1.9382578e-039
0.028932668 0.030139059 0.022403874 2.3063229e-039
0.031322658 0.027508751 0.027148947 2.2141258e-039
0.033369027 0.027508972 0.027513683 2.3063229e-039
0.035491757 0.026983093 0.028755844 2.3985171e-039
0.037381604 0.028035514 0.027365059 2.2141258e-039
0.039588302 0.026983537 0.029485993 2.3985171e-039
0.041636139 0.02698376 0.029850982 2.0304563e-039
0.043770924 0.026457883 0.031095289 2.1226505e-039
0.045281366 0.02961472 0.026181608 2.0304563e-039
0.046944775 0.031719361 0.023022801 3.8743674e-039
0.048681907 0.033297874 0.020741001 7.7465825e-039
0.050696477 0.03329809 0.021100067 3.6906965e-039
0.052509695 0.034350533 0.01969558 4.24315e-039
0.054518454 0.034350749 0.02005361 2.215565e-039
0.05663275 0.033824865 0.021294266 4.6126528e-039
0.058752149 0.033298954 0.022535875 3.7828921e-039
0.060654327 0.033825293 0.022011042 3.5063052e-039
0.062664777 0.033825506 0.022369377 3.5063052e-039
0.064675003 0.033825718 0.022727668 4.5204571e-039
0.067042291 0.032247614 0.025741078 4.3360645e-039
0.069060057 0.032247823 0.02610071 4.1516718e-039
0.07120198 0.031721938 0.027346276 6.5487582e-039
0.073094986 0.03224824 0.02681987 4.2431486e-039
0.07563097 0.030144043 0.030727148 6.2714524e-039
0.077923305 0.029092064 0.032863326 8.1157209e-039
0.080361076 0.027513959 0.035889298 2.123005e-039
0.082676962 0.026461976 0.038029671 2.306676e-039
0.084862985 0.025936056 0.039283141 2.1226365e-039
0.086768284 0.02646238 0.038758874 1.7538525e-039
0.088522561 0.027514763 0.037343912 3.3204594e-039
0.089969635 0.029619355 0.03414654 3.687444e-039
0.091999009 0.029619548 0.034508228 4.9735081e-039
0.093721196 0.030671921 0.033087552 5.8025415e-039
0.095745116 0.030672107 0.033448264 1.0133556e-038
0.097610109 0.031198416 0.032916784 1.1423933e-038
0.099792801 0.030672476 0.034169659 1.3360745e-038
0.10214485 0.029620472 0.036316477 1.1332074e-038
0.1041739 0.029620651 0.036678091 1.2623527e-038
0.10637237 0.029094741 0.037933722 1.1517174e-038
0.10840409 0.029094912 0.038295813 1.1332783e-038
0.11061054 0.028568991 0.039552867 1.1885969e-038
0.11282235 0.028043037 0.040810913 1.0133194e-038
0.1148594 0.028043201 0.04117395 6.9982135e-039
0.11707924 0.02751727 0.042433366 9.4889388e-039
0.11930446 0.026991339 0.043693759 6.4472047e-039
0.12153507 0.026465405 0.044955097 6.4475634e-039
0.12358045 0.026465554 0.045319617 8.6602571e-039
0.12543266 0.026991788 0.044785887 5.5256085e-039
0.12747566 0.02699193 0.045149975 5.4341331e-039
0.12971742 0.026465978 0.046413295 7.095095e-039
0.13236713 0.024887819 0.049476985 8.2975815e-039
0.13544066 0.022257481 0.054343823 1.1618037e-038
0.13957363 0.016996676 0.063718587 1.1710943e-038
0.13957608 0.02225773 0.055080783 2.674734e-039
0.14122051 0.023310022 0.053646199 3.0442256e-039
0.14349803 0.022784047 0.054915875 1.1251419e-038
0.14751831 0.018049318 0.063406721 1.0697539e-038
0.15158665 0.013314582 0.071906134 2.6743795e-039
0.15392348 0.012788597 0.073186368 2.5818294e-039
0.15266433 0.020680077 0.060004607 2.2148461e-039
0.1551978 0.019627992 0.062183686 3.9669162e-039
0.15659025 0.021206334 0.059840366 1.0697905e-038
0.15913248 0.020154238 0.062021002 4.3356721e-039
0.16121435 0.02015431 0.06239197 1.2632559e-038
0.16425015 0.018050004 0.066388234 1.1710955e-038
0.16682568 0.016997894 0.068574801 1.7524232e-039
0.16843754 0.018050123 0.067134365 2.2126825e-039
0.17053203 0.01805017 0.067507572 1.235635e-038
0.17262703 0.018050212 0.067880861 4.8856187e-039
0.17472267 0.01805025 0.068254262 1.2928716e-039
0.17681885 0.018050278 0.068627752 1.1158161e-038
0.18020067 0.015419845 0.073549464 9.4082282e-039
0.18127283 0.017524233 0.070285156 1.9378767e-039
0.18337369 0.017524242 0.070659474 1.2448181e-038
0.1857402 0.016998161 0.071944937 1.1526591e-038
0.18891573 0.014893787 0.07596606 5.3494835e-039
0.18995082 0.016998146 0.072695136 4.3346113e-039
0.19178441 0.017524213 0.072157979 1.1250727e-038
0.19416469 0.016998103 0.073445879 6.7331396e-039
0.19822103 0.013315411 0.080215424 1.9382438e-039
0.20203461 0.010158826 0.086077847 2.3988702e-039
3.1396747e-005 0.0019404171 0.059268445 8.9447712e-039
0.0020447671 0.0045829071 0.055315491 8.2068404e-039
0.0042713284 0.0035264101 0.057437144 4.703761e-039
0.0087552965 0.0014133947 0.061686017 5.2562145e-039
0.010039791 0.012510747 0.043805078 4.888518e-039
0.011616796 0.018852202 0.033737719 5.8104743e-039
0.012986667 0.026778974 0.021046251 3.7821718e-039
0.014980376 0.027307734 0.020539299 3.4133893e-039
0.016438946 0.033120748 0.0113132 1.7549414e-039
0.01861719 0.031535797 0.014288679 5.6271592e-039
0.020577982 0.032064583 0.013775811 2.3081165e-039
0.023020536 0.028365938 0.020247906 2.031531e-039
0.024927713 0.029423147 0.018863134 2.2148447e-039
0.027221419 0.027309798 0.022721559 2.0304563e-039
0.029398248 0.026253279 0.024834409 2.0304563e-039
0.031656973 0.024668379 0.027824171 2.2141258e-039
0.033560216 0.025725562 0.02643875 2.2141258e-039
0.035529412 0.026254328 0.025927439 2.3063229e-039
0.037492976 0.026783124 0.025415078 2.3063229e-039
0.039615311 0.026255026 0.026655853 2.3063229e-039
0.041318424 0.028369062 0.023509964 2.2148461e-039
0.04317499 0.029426266 0.022116169 2.307762e-039
0.044930488 0.031011853 0.019842021 1.9389795e-039
0.046948262 0.0310122 0.020201743 2.1233707e-039
0.048870258 0.031540956 0.019682027 4.0587573e-039
0.050884783 0.031541299 0.020041168 2.3999576e-039
0.05269751 0.032598495 0.01863955 4.888518e-039
0.054913118 0.031541985 0.020759314 3.8743674e-039
0.057139076 0.030485503 0.022880875 5.4424148e-039
0.059484139 0.028900584 0.025886089 4.980715e-039
0.061510682 0.028900927 0.026247367 5.7179227e-039
0.063537061 0.028901264 0.026608609 4.059479e-039
0.065563142 0.028901603 0.026969805 6.9178966e-039
0.067708395 0.02837353 0.028214604 3.6910496e-039
0.06949275 0.02943071 0.026807927 4.0598321e-039
0.071390942 0.029959451 0.026283942 4.1520263e-039
0.073410973 0.029959779 0.026644059 2.3999464e-039
0.075950585 0.02784645 0.030546315 3.2286323e-039
0.077848285 0.028375182 0.030022241 2.6754571e-039
0.080010965 0.027847098 0.031270146 3.7818019e-039
0.082040951 0.027847419 0.031632021 2.4906973e-039
0.084773503 0.025205687 0.036431029 3.4126522e-039
0.087102845 0.024149165 0.038571052 1.0697185e-038
0.089005105 0.024677914 0.038047738 1.2630046e-038
0.090307996 0.027320273 0.033968106 3.5920016e-039
0.09218888 0.027848978 0.033441029 1.0135694e-038
0.094064355 0.028377682 0.032912984 1.1331348e-038
0.096247353 0.027849577 0.034164503 1.1607569e-038
0.098276481 0.02784987 0.034526207 9.8558534e-039
0.1003056 0.027850159 0.034887917 1.2159668e-038
0.10249904 0.027322046 0.036141276 1.2712839e-038
0.10469777 0.026793927 0.037395582 1.3173817e-038
0.10673209 0.026794204 0.037758201 1.3357488e-038
0.10876646 0.026794478 0.038120829 1.3634075e-038
0.11097579 0.026266314 0.039377071 1.2160376e-038
0.11319046 0.02573818 0.0406342 1.2345134e-038
0.1152302 0.025738437 0.040997781 1.2069269e-038
0.11745296 0.025210289 0.042256348 1.0501619e-038
0.11968102 0.02468214 0.043515854 6.8131005e-039
0.12210277 0.023625556 0.045672297 4.9720732e-039
0.12415346 0.023625791 0.046037816 7.0007386e-039
0.12620427 0.023626022 0.046403348 6.2631736e-039
0.12825522 0.023626249 0.046768904 4.882037e-039
0.13050513 0.02309807 0.048032288 6.9117814e-039
0.13296202 0.022041488 0.050194927 9.6826753e-039
0.13583802 0.019928083 0.05415706 1.152692e-038
0.13976929 0.015172657 0.062619187 1.1527272e-038
0.14039761 0.018871652 0.056694504 2.4899883e-039
0.14183739 0.020457055 0.054363936 4.1495124e-039
0.14369096 0.020985629 0.053831909 1.0974835e-038
0.14727871 0.017287005 0.060507994 9.7755828e-039
0.15068385 0.014116738 0.066289201 1.4776216e-039
0.15278497 0.014116896 0.066663653 2.4914176e-039
0.15353432 0.017287474 0.061622839 2.2148447e-039
0.15584826 0.016759189 0.062897637 1.023585e-038
0.15770657 0.017287748 0.06236637 1.0696829e-038
0.15979327 0.017287869 0.062738232 2.5839691e-039
0.16140857 0.018344771 0.061301328 1.226379e-038
0.16396812 0.017288089 0.063482195 1.1987566e-038
